<?xml version="1.0"?>
<opencv_storage>
<depth_close type_id="opencv-matrix">
  <rows>32</rows>
  <cols>640</cols>
  <dt>f</dt>
  <data>
    0. 0. 0. 0. 0. 0. 0. 0. 2505. 2523. 2542. 2542. 2542. 2560. 2560. 2580. 2580. 2580. 2580. 2599. 2599. 2599. 2599. 2619. 2639. 2639. 2659. 2659. 2659. 2680. 2680. 2680. 2701. 2701. 2701. 2722. 2722. 2722. 2722. 2743. 2743. 2743. 2743. 2722. 2743. 2743. 2722. 2722. 2743. 2743. 2743. 2788. 0. 0. 0. 0. 0. 0. 0. 0. 0. 0. 0. 0. 0. 0. 0. 0. 3324. 3324. 3293. 3293. 3293. 0. 0. 0. 0. 0. 3033. 3059. 3059. 3059. 3059. 3059. 3059. 3059. 3033. 3033. 3033. 3059. 3059. 3059. 3059. 3059. 3087. 3087. 3087. 3115. 3115. 3115. 3115. 3172. 3201. 3231. 3231. 3231. 3231. 3201. 3231. 3201. 3201. 3172. 3172. 3201. 3201. 3201. 3201. 3201. 3201. 3201. 3172. 3172. 3143. 3143. 3115. 3115. 3087. 3087. 3087. 3087. 3087. 3087. 3087. 3087. 3087. 3087. 3087. 3087. 3087. 3087. 3087. 3059. 3033. 3033. 3033. 3033. 3059. 3059. 3059. 3033. 3059. 3059. 3059. 3059. 3059. 3059. 3087. 3087. 3087. 3115. 3115. 3115. 3115. 3115. 3115. 3143. 3143. 3143. 3172. 3172. 3201. 3201. 3231. 3231. 3231. 3262. 3262. 3293. 3324. 3390. 3423. 3423. 3458. 3458. 3458. 3493. 3493. 3528. 3528. 3565. 3602. 3602. 3602. 3602. 3602. 3602. 3640. 3640. 3640. 3640. 3640. 3679. 3718. 3759. 3759. 3759. 3759. 3800. 3800. 3800. 3800. 3842. 3842. 3842. 3885. 3885. 3885. 3885. 1148. 1148. 1148. 1148. 1144. 1140. 1136. 1133. 1133. 1129. 1125. 1125. 1122. 1122. 1122. 1118. 1118. 1114. 1107. 1104. 1104. 1104. 1104. 1100. 1097. 1097. 1093. 1090. 1090. 1086. 1083. 1079. 1076. 1073. 1073. 1073. 1069. 1069. 1066. 1066. 1063. 1063. 1060. 1060. 1060. 1060. 1060. 1056. 1056. 1053. 1053. 1056. 1056. 1056. 1056. 1056. 1056. 1060. 1060. 1060. 1060. 1060. 1060. 1060. 1060. 1060. 1060. 1060. 1060. 1060. 1063. 1063. 1066. 1069. 1069. 1069. 1073. 1073. 1073. 1073. 1073. 1073. 1076. 1076. 1079. 1079. 1083. 1083. 1086. 1086. 1086. 1090. 1090. 1093. 1093. 1097. 1097. 1097. 1097. 1100. 1100. 1100. 1100. 1104. 1104. 1107. 1107. 1107. 1107. 1111. 1111. 1111. 1111. 1114. 1114. 1118. 1122. 1125. 1125. 1125. 1129. 1129. 1129. 1129. 1129. 0. 0. 0. 0. 0. 0. 0. 0. 0. 0. 0. 0. 0. 0. 0. 0. 0. 0. 0. 0. 0. 0. 0. 0. 0. 0. 0. 0. 0. 0. 0. 0. 0. 0. 0. 0. 0. 0. 0. 0. 0. 0. 0. 0. 0. 0. 0. 0. 0. 0. 0. 0. 0. 0. 0. 0. 0. 0. 0. 0. 0. 0. 0. 0. 0. 0. 0. 0. 0. 0. 0. 0. 0. 0. 0. 0. 0. 0. 0. 0. 0. 0. 0. 0. 0. 0. 0. 0. 0. 1677. 0. 1702. 1702. 1702. 1702. 1702. 1711. 0. 0. 0. 0. 0. 0. 0. 0. 0. 0. 0. 0. 0. 0. 0. 0. 0. 0. 0. 0. 0. 0. 0. 0. 0. 0. 0. 0. 0. 0. 0. 0. 0. 0. 0. 0. 0. 0. 0. 0. 0. 0. 0. 0. 0. 0. 0. 0. 0. 0. 0. 0. 0. 0. 0. 0. 0. 0. 0. 0. 0. 0. 0. 0. 0. 0. 0. 0. 0. 0. 0. 0. 0. 0. 0. 0. 0. 0. 0. 0. 0. 0. 0. 0. 0. 0. 0. 0. 0. 0. 0. 0. 0. 0. 0. 0. 0. 0. 0. 0. 0. 0. 0. 0. 0. 0. 0. 0. 0. 0. 0. 0. 0. 0. 0. 0. 0. 0. 0. 0. 0. 0. 0. 0. 0. 0. 0. 0. 0. 0. 0. 0. 0. 0. 0. 0. 0. 0. 0. 0. 0. 0. 0. 0. 0. 0. 0. 0. 0. 0. 0. 0. 0. 0. 0. 0. 0. 0. 0. 0. 0. 0. 0. 0. 2304. 2289. 2289. 2289. 2289. 2289. 2289. 2289. 2289. 2289. 2274. 0. 0. 0. 0. 0. 0. 0. 1888. 1909. 1909. 1909. 1899. 1909. 1899. 1899. 1899. 1888. 1888. 1888. 1888. 1888. 1888. 1888. 1888. 1888.
    0. 0. 0. 0. 0. 0. 0. 0. 2505. 2505. 2523. 2523. 2542. 2542. 2542. 2560. 2560. 2560. 2580. 2580. 2580. 2599. 2599. 2619. 2619. 2639. 2639. 2659. 2659. 2680. 2680. 2680. 0. 2701. 2701. 2722. 2722. 2701. 2722. 2722. 2722. 2722. 2743. 2722. 2722. 2743. 2722. 2722. 2722. 2743. 2743. 2765. 0. 0. 0. 0. 0. 0. 0. 0. 0. 0. 0. 0. 0. 0. 0. 0. 0. 0. 3262. 0. 0. 0. 0. 0. 0. 0. 3059. 3059. 3059. 3059. 3059. 3059. 3033. 3033. 3033. 3033. 3033. 3033. 3059. 3059. 3059. 3059. 3087. 3087. 3087. 3115. 3115. 3115. 3115. 3143. 3172. 3201. 3231. 3201. 3231. 3201. 3201. 3201. 3201. 3172. 3172. 3201. 3201. 3201. 3201. 3201. 3201. 3201. 3172. 3143. 3143. 3115. 3115. 3115. 3087. 3087. 3087. 3087. 3087. 3087. 3087. 3087. 3087. 3087. 3087. 3087. 3087. 3087. 3087. 3059. 3059. 3033. 3033. 3059. 3059. 3059. 3059. 3033. 3059. 3059. 3059. 3059. 3059. 3059. 3087. 3087. 3087. 3115. 3115. 3115. 3115. 3115. 3115. 3143. 3143. 3143. 3172. 3172. 3201. 3201. 3231. 3231. 3231. 3262. 3262. 3262. 3324. 3390. 3423. 3458. 3458. 3458. 3458. 3493. 3493. 3528. 3528. 3565. 3565. 3602. 3602. 3602. 3602. 3602. 3602. 3640. 3640. 3640. 3640. 3679. 3718. 3718. 3759. 3759. 3759. 3800. 3800. 3800. 3800. 3842. 3800. 3842. 3842. 3842. 3885. 1151. 1148. 1148. 1148. 1148. 1144. 1140. 1136. 1133. 1133. 1129. 1125. 1125. 1122. 1122. 1122. 1118. 1118. 1114. 1107. 1104. 1104. 1104. 1104. 1100. 1097. 1097. 1093. 1093. 1090. 1086. 1079. 1076. 1076. 1073. 1073. 1073. 1069. 1069. 1066. 1066. 1063. 1063. 1063. 1063. 1060. 1060. 1060. 1060. 1060. 1056. 1056. 1056. 1056. 1056. 1056. 1056. 1060. 1060. 1060. 1060. 1060. 1060. 1060. 1060. 1060. 1060. 1060. 1060. 1060. 1060. 1063. 1063. 1066. 1069. 1069. 1069. 1069. 1073. 1073. 1073. 1073. 1073. 1076. 1076. 1079. 1079. 1083. 1083. 1086. 1086. 1090. 1090. 1090. 1093. 1093. 1097. 1097. 1097. 1097. 1100. 1100. 1100. 1100. 1100. 1104. 1107. 1107. 1107. 1107. 1111. 1111. 1111. 1111. 1114. 1114. 1118. 1122. 1125. 1125. 1125. 1129. 1129. 1129. 1129. 1133. 1129. 0. 0. 0. 0. 0. 0. 0. 0. 0. 0. 0. 0. 0. 0. 0. 0. 0. 0. 0. 0. 0. 0. 0. 0. 0. 0. 0. 0. 0. 0. 0. 0. 0. 0. 0. 0. 0. 0. 0. 0. 0. 0. 0. 0. 0. 0. 0. 0. 0. 0. 0. 0. 0. 0. 0. 0. 0. 0. 0. 0. 0. 0. 0. 0. 0. 0. 0. 0. 0. 0. 0. 0. 0. 0. 0. 0. 0. 0. 0. 0. 0. 0. 0. 0. 0. 0. 0. 0. 0. 0. 0. 0. 0. 0. 0. 0. 0. 0. 0. 0. 0. 0. 0. 0. 0. 0. 0. 0. 0. 0. 0. 0. 0. 0. 0. 0. 0. 0. 0. 0. 0. 0. 0. 0. 0. 0. 0. 0. 0. 0. 0. 0. 0. 0. 0. 0. 0. 0. 0. 0. 0. 0. 0. 0. 0. 0. 0. 0. 0. 0. 0. 0. 0. 0. 0. 0. 0. 0. 0. 0. 0. 0. 0. 0. 0. 0. 0. 0. 0. 0. 0. 0. 0. 0. 0. 0. 0. 0. 0. 0. 0. 0. 0. 0. 0. 0. 0. 0. 0. 0. 0. 0. 0. 0. 0. 0. 0. 0. 0. 0. 0. 0. 0. 0. 0. 0. 0. 0. 0. 0. 0. 0. 0. 0. 0. 0. 0. 0. 0. 0. 0. 0. 0. 0. 0. 0. 0. 0. 0. 0. 0. 0. 0. 0. 0. 0. 0. 0. 0. 0. 0. 0. 0. 0. 0. 0. 0. 0. 0. 0. 0. 0. 0. 0. 0. 0. 0. 0. 0. 0. 2304. 2274. 2274. 2274. 2289. 2289. 2289. 2289. 2289. 2289. 2274. 0. 0. 0. 0. 0. 0. 0. 0. 0. 1899. 1909. 1899. 1899. 1899. 1899. 1888. 1888. 1888. 1888. 1888. 1888. 1888. 1888. 1888. 1888.
    0. 0. 0. 0. 0. 0. 0. 0. 2505. 2505. 2523. 2523. 2523. 2542. 2542. 2560. 2560. 2560. 2560. 2580. 2580. 2580. 2599. 2619. 2619. 2639. 2639. 2639. 2659. 2680. 2680. 2680. 2701. 2701. 2701. 2701. 2701. 2701. 2701. 2722. 2722. 2722. 2722. 2722. 2722. 2722. 2722. 2722. 2722. 2722. 2743. 2765. 0. 0. 0. 0. 0. 0. 0. 0. 0. 0. 0. 0. 0. 0. 0. 0. 0. 0. 0. 0. 0. 0. 0. 0. 0. 0. 3033. 3033. 3033. 3033. 3059. 3059. 3033. 3033. 3033. 3033. 3033. 3033. 3059. 3059. 3059. 3059. 3087. 3087. 3087. 3087. 3115. 3087. 3115. 3143. 3172. 3201. 3201. 3201. 3201. 3201. 3201. 3201. 3201. 3172. 3172. 3201. 3201. 3201. 3201. 3201. 3172. 3172. 3172. 3143. 3115. 3115. 3115. 3087. 3087. 3087. 3087. 3087. 3087. 3087. 3087. 3087. 3087. 3087. 3087. 3087. 3087. 3087. 3087. 3059. 3059. 3033. 3033. 3033. 3059. 3059. 3059. 3033. 3059. 3059. 3059. 3059. 3059. 3087. 3087. 3087. 3115. 3115. 3115. 3115. 3115. 3115. 3115. 3143. 3143. 3143. 3172. 3172. 3201. 3201. 3231. 3231. 3231. 3262. 3262. 3293. 3324. 3423. 3423. 3458. 3458. 3458. 3458. 3493. 3493. 3528. 3528. 3565. 3565. 3565. 3602. 3602. 3602. 3602. 3602. 3640. 3640. 3640. 3640. 3679. 3718. 3759. 3759. 3759. 3759. 3759. 3800. 3800. 3800. 3842. 3800. 3842. 3842. 3842. 3885. 1151. 1148. 1148. 1148. 1148. 1144. 1140. 1136. 1133. 1133. 1129. 1129. 1125. 1125. 1122. 1122. 1118. 1118. 1114. 1111. 1107. 1107. 1104. 1104. 1100. 1097. 1097. 1093. 1093. 1090. 1086. 1079. 1076. 1076. 1073. 1073. 1073. 1073. 1069. 1066. 1066. 1063. 1063. 1063. 1063. 1060. 1060. 1060. 1060. 1060. 1060. 1060. 1060. 1060. 1060. 1060. 1060. 1060. 1060. 1060. 1060. 1060. 1060. 1060. 1060. 1060. 1060. 1060. 1060. 1060. 1060. 1063. 1066. 1066. 1069. 1069. 1069. 1073. 1073. 1073. 1073. 1073. 1073. 1076. 1076. 1076. 1079. 1079. 1083. 1086. 1086. 1086. 1090. 1090. 1093. 1093. 1097. 1097. 1097. 1097. 1100. 1100. 1100. 1100. 1100. 1104. 1107. 1107. 1107. 1107. 1111. 1111. 1111. 1114. 1114. 1114. 1118. 1122. 1125. 1125. 1125. 1125. 1129. 1129. 1129. 1133. 1129. 0. 0. 0. 0. 0. 0. 0. 0. 0. 0. 0. 0. 0. 0. 0. 0. 0. 0. 0. 0. 0. 0. 0. 0. 0. 0. 0. 0. 0. 0. 0. 0. 0. 0. 0. 0. 0. 0. 0. 0. 0. 0. 0. 0. 0. 0. 0. 0. 0. 0. 0. 0. 0. 0. 0. 0. 0. 0. 0. 0. 0. 0. 0. 0. 0. 0. 0. 0. 0. 0. 0. 0. 0. 0. 0. 0. 0. 0. 0. 0. 0. 0. 0. 0. 0. 0. 0. 0. 0. 0. 0. 0. 0. 0. 0. 0. 0. 0. 0. 0. 0. 0. 0. 0. 0. 0. 0. 0. 0. 0. 0. 0. 0. 0. 0. 0. 0. 0. 0. 0. 0. 0. 0. 0. 0. 0. 0. 0. 0. 0. 0. 0. 0. 0. 0. 0. 0. 0. 0. 0. 0. 0. 0. 0. 0. 0. 0. 0. 0. 0. 0. 0. 0. 0. 0. 0. 0. 0. 0. 0. 0. 0. 0. 0. 0. 0. 0. 0. 0. 0. 0. 0. 0. 0. 0. 0. 0. 0. 0. 0. 0. 0. 0. 0. 0. 0. 0. 0. 0. 0. 0. 0. 0. 0. 0. 0. 0. 0. 0. 0. 0. 0. 0. 0. 0. 0. 0. 0. 0. 0. 0. 0. 0. 0. 0. 0. 0. 0. 0. 0. 0. 0. 0. 0. 0. 0. 0. 0. 0. 0. 0. 0. 0. 0. 0. 0. 0. 0. 0. 0. 0. 0. 0. 0. 0. 0. 0. 0. 0. 0. 0. 0. 0. 0. 0. 0. 0. 0. 0. 0. 2304. 2274. 2274. 2274. 2274. 2274. 2274. 2289. 2289. 2289. 0. 0. 0. 0. 0. 0. 0. 0. 0. 0. 1899. 1899. 1888. 1888. 1888. 1888. 1888. 1888. 1888. 1888. 1888. 1888. 1888. 1888. 1888. 1888.
    0. 0. 0. 0. 0. 0. 0. 0. 2505. 2505. 2505. 2523. 2523. 2542. 2542. 2542. 2560. 2560. 2560. 2580. 2580. 2580. 2599. 2599. 2619. 2619. 2639. 2639. 2639. 2659. 2680. 2680. 2701. 2701. 2701. 2701. 2701. 2701. 2701. 2722. 2722. 2722. 2722. 2722. 2722. 2722. 2722. 2722. 2722. 2743. 2743. 2765. 2788. 2810. 2810. 2834. 0. 0. 0. 0. 0. 0. 0. 0. 0. 0. 0. 0. 0. 0. 0. 0. 0. 0. 0. 0. 2930. 2955. 2980. 2980. 3006. 3006. 3033. 3033. 3033. 3033. 3033. 3033. 3033. 3059. 3059. 3059. 3059. 3059. 3087. 3087. 3087. 3115. 3115. 3087. 3115. 3115. 3143. 3201. 3201. 3172. 3201. 3201. 3172. 3172. 3172. 3172. 3172. 3172. 3172. 3201. 3201. 3201. 3172. 3172. 3172. 3143. 3115. 3115. 3087. 3087. 3087. 3087. 3087. 3087. 3087. 3087. 3087. 3087. 3087. 3087. 3087. 3087. 3087. 3087. 3087. 3059. 3033. 3033. 3033. 3033. 3033. 3033. 3033. 3033. 3059. 3059. 3059. 3087. 3087. 3087. 3087. 3087. 3115. 3115. 3115. 3115. 3115. 3115. 3115. 3143. 3143. 3143. 3143. 3172. 3201. 3201. 3201. 3201. 3231. 3262. 3293. 3324. 3357. 3423. 3458. 3458. 3458. 3458. 3458. 3493. 3493. 3528. 3528. 3528. 3565. 3565. 3602. 3602. 3602. 3602. 3602. 3640. 3640. 3640. 3640. 3679. 3718. 3718. 3759. 3759. 3759. 3759. 3800. 3800. 3800. 3800. 3800. 3842. 3842. 3842. 3842. 1148. 1148. 1148. 1148. 1144. 1144. 1140. 1136. 1133. 1133. 1129. 1129. 1125. 1125. 1122. 1122. 1118. 1118. 1114. 1111. 1107. 1107. 1104. 1104. 1100. 1097. 1097. 1093. 1093. 1090. 1086. 1079. 1076. 1076. 1076. 1073. 1073. 1073. 1069. 1069. 1066. 1063. 1063. 1063. 1063. 1063. 1060. 1060. 1060. 1060. 1060. 1060. 1060. 1060. 1060. 1060. 1060. 1060. 1060. 1060. 1060. 1060. 1060. 1060. 1060. 1063. 1063. 1060. 1060. 1060. 1060. 1063. 1063. 1066. 1069. 1069. 1069. 1073. 1073. 1073. 1073. 1073. 1073. 1076. 1076. 1076. 1079. 1079. 1083. 1086. 1086. 1086. 1090. 1090. 1093. 1093. 1097. 1097. 1097. 1097. 1100. 1100. 1100. 1100. 1100. 1104. 1107. 1107. 1107. 1107. 1111. 1111. 1111. 1114. 1114. 1118. 1118. 1122. 1122. 1125. 1125. 1125. 1125. 1129. 1129. 1129. 1129. 1133. 0. 0. 0. 0. 0. 0. 0. 0. 0. 0. 0. 0. 0. 0. 0. 0. 0. 0. 0. 0. 0. 0. 0. 0. 0. 0. 0. 0. 0. 0. 0. 0. 0. 0. 0. 0. 0. 0. 0. 0. 0. 0. 0. 0. 0. 0. 0. 0. 0. 0. 0. 0. 0. 0. 0. 0. 0. 0. 0. 0. 0. 0. 0. 0. 0. 0. 0. 0. 0. 0. 0. 0. 0. 0. 0. 0. 0. 0. 0. 0. 0. 0. 0. 0. 0. 0. 0. 0. 0. 0. 0. 0. 0. 0. 0. 0. 0. 0. 0. 0. 0. 0. 0. 0. 0. 0. 0. 0. 0. 0. 0. 0. 0. 0. 0. 0. 0. 0. 0. 0. 0. 0. 0. 0. 0. 0. 0. 0. 0. 0. 0. 0. 0. 0. 0. 0. 0. 0. 0. 0. 0. 0. 0. 0. 0. 0. 0. 0. 0. 0. 0. 0. 0. 0. 0. 0. 0. 0. 0. 0. 0. 0. 0. 0. 0. 0. 0. 0. 0. 0. 0. 0. 0. 0. 0. 0. 0. 0. 0. 0. 0. 0. 0. 0. 0. 0. 0. 0. 0. 0. 0. 0. 0. 0. 0. 0. 0. 0. 0. 0. 0. 0. 0. 0. 0. 0. 0. 0. 0. 0. 0. 0. 0. 0. 0. 0. 0. 0. 0. 0. 0. 0. 0. 0. 0. 0. 0. 0. 0. 0. 0. 0. 0. 0. 0. 0. 0. 0. 0. 0. 0. 0. 0. 0. 0. 0. 0. 0. 0. 0. 0. 0. 0. 0. 0. 0. 0. 0. 0. 2304. 2274. 2274. 2259. 2274. 2274. 2274. 2289. 0. 0. 0. 0. 0. 0. 0. 0. 0. 0. 0. 0. 1909. 1909. 1899. 1899. 1888. 1899. 1888. 1888. 1888. 1888. 1888. 1888. 1888. 1888. 1888. 1888.
    0. 0. 0. 0. 0. 0. 0. 0. 2505. 2505. 2505. 2523. 2523. 2542. 2542. 2542. 2560. 2560. 2560. 2580. 2580. 2580. 2599. 2599. 2619. 2619. 2619. 2619. 2639. 2659. 2659. 2659. 2680. 2701. 2680. 2680. 2701. 2701. 2701. 2701. 2722. 2722. 2722. 2722. 2722. 2722. 2722. 2722. 2722. 2743. 2765. 2788. 2788. 2810. 2810. 2810. 0. 0. 0. 2765. 2788. 2834. 2857. 2881. 0. 0. 0. 2881. 2905. 0. 0. 0. 0. 0. 0. 0. 2980. 2980. 2980. 2980. 3006. 3006. 3006. 3006. 3006. 3033. 3033. 3033. 3059. 3059. 3059. 3059. 3059. 3059. 3087. 3087. 3087. 3115. 3115. 3087. 3087. 3115. 3115. 3172. 3201. 3172. 3172. 3172. 3172. 3172. 3172. 3172. 3172. 3172. 3172. 3201. 3201. 3172. 3172. 3172. 3172. 3143. 3115. 3115. 3087. 3087. 3087. 3087. 3087. 3087. 3087. 3087. 3087. 3087. 3087. 3087. 3087. 3087. 3087. 3087. 3087. 3059. 3033. 3033. 3033. 3033. 3033. 3033. 3033. 3033. 3059. 3059. 3059. 3087. 3087. 3087. 3087. 3087. 3115. 3115. 3115. 3115. 3115. 3115. 3115. 3143. 3143. 3143. 3143. 3172. 3201. 3201. 3201. 3231. 3231. 3262. 3293. 3324. 3390. 3458. 3458. 3458. 3458. 3458. 3458. 3493. 3493. 3493. 3528. 3528. 3528. 3565. 3602. 3602. 3602. 3602. 3602. 3640. 3640. 3640. 3640. 3679. 3718. 3759. 3759. 3759. 3759. 3759. 3800. 3800. 3800. 3800. 3800. 3842. 3842. 3842. 3842. 1148. 1148. 1148. 1144. 1144. 1144. 1140. 1136. 1136. 1133. 1129. 1129. 1125. 1125. 1122. 1122. 1118. 1118. 1114. 1111. 1107. 1104. 1104. 1104. 1100. 1097. 1097. 1093. 1093. 1090. 1086. 1079. 1076. 1076. 1076. 1073. 1073. 1073. 1073. 1069. 1066. 1066. 1063. 1063. 1063. 1063. 1060. 1060. 1060. 1060. 1060. 1060. 1060. 1060. 1060. 1060. 1060. 1060. 1060. 1060. 1060. 1060. 1060. 1060. 1060. 1063. 1063. 1060. 1060. 1060. 1060. 1063. 1063. 1066. 1069. 1069. 1069. 1073. 1073. 1073. 1073. 1073. 1073. 1076. 1076. 1076. 1079. 1079. 1083. 1083. 1086. 1086. 1086. 1090. 1090. 1093. 1093. 1097. 1097. 1097. 1097. 1100. 1100. 1100. 1100. 1100. 1104. 1107. 1107. 1107. 1107. 1111. 1111. 1114. 1114. 1114. 1118. 1122. 1122. 1125. 1125. 1125. 1125. 1129. 1129. 1129. 1129. 1129. 0. 0. 0. 0. 0. 0. 0. 0. 0. 0. 0. 0. 0. 0. 0. 0. 0. 0. 0. 0. 0. 0. 0. 0. 0. 0. 0. 0. 0. 0. 0. 0. 0. 0. 0. 0. 0. 0. 0. 0. 0. 0. 0. 0. 0. 0. 0. 0. 0. 0. 0. 0. 0. 0. 0. 0. 0. 0. 0. 0. 0. 0. 0. 0. 0. 0. 0. 0. 0. 0. 0. 0. 0. 0. 0. 0. 0. 0. 0. 0. 0. 0. 0. 0. 0. 0. 0. 0. 0. 0. 0. 0. 0. 0. 0. 0. 0. 0. 0. 0. 0. 0. 0. 0. 0. 0. 0. 0. 0. 0. 0. 0. 0. 0. 0. 0. 0. 0. 0. 0. 0. 0. 0. 0. 0. 0. 0. 0. 0. 0. 0. 0. 0. 0. 0. 0. 0. 0. 0. 0. 0. 0. 0. 0. 0. 0. 0. 0. 0. 0. 0. 0. 0. 0. 0. 0. 0. 0. 0. 0. 0. 0. 0. 0. 0. 0. 0. 0. 0. 0. 0. 0. 0. 0. 0. 0. 0. 0. 0. 0. 0. 0. 0. 0. 0. 0. 0. 0. 0. 0. 0. 0. 0. 0. 0. 0. 0. 0. 0. 0. 0. 0. 0. 0. 0. 0. 0. 0. 0. 0. 0. 0. 0. 0. 0. 0. 0. 0. 0. 0. 0. 0. 0. 0. 0. 0. 0. 0. 0. 0. 0. 0. 0. 0. 0. 0. 0. 0. 0. 0. 0. 0. 0. 2304. 0. 0. 0. 0. 0. 0. 0. 0. 0. 0. 0. 0. 0. 0. 0. 2289. 2274. 2274. 2274. 2274. 2274. 2289. 0. 0. 0. 0. 0. 0. 0. 0. 0. 0. 0. 0. 0. 1909. 1909. 1899. 1899. 1888. 1899. 1888. 1888. 1888. 1888. 1888. 1888. 1888. 1878. 1878. 1888.
    0. 0. 0. 0. 0. 0. 0. 0. 2505. 2505. 2523. 2523. 2542. 2560. 2560. 2560. 2560. 2560. 2560. 2580. 2580. 2580. 2599. 2599. 2619. 2619. 2619. 2619. 2639. 2659. 2659. 2659. 2680. 2680. 2680. 2680. 2680. 2680. 2701. 2701. 2722. 2722. 2722. 2722. 2722. 2722. 2722. 2743. 2743. 2743. 2765. 2788. 2788. 2788. 2810. 2810. 2810. 2788. 2788. 2765. 2788. 2834. 2857. 2881. 2881. 2881. 2881. 2881. 2905. 2930. 2881. 0. 0. 0. 0. 0. 0. 2980. 2980. 2980. 2980. 3006. 3006. 3006. 3006. 3006. 3006. 3033. 3033. 3033. 3033. 3059. 3059. 3059. 3059. 3087. 3087. 3087. 3115. 3087. 3087. 3115. 3115. 3143. 3172. 3143. 3172. 3172. 3172. 3172. 3172. 3172. 3172. 3172. 3172. 3172. 3172. 3172. 3172. 3172. 3143. 3115. 3115. 3087. 3087. 3087. 3087. 3087. 3087. 3087. 3087. 3087. 3087. 3087. 3087. 3087. 3087. 3087. 3087. 3087. 3087. 3059. 3033. 3033. 3033. 3033. 3033. 3033. 3033. 3033. 3033. 3059. 3059. 3087. 3087. 3087. 3087. 3087. 3115. 3115. 3115. 3115. 3115. 3115. 3115. 3143. 3143. 3143. 3172. 3172. 3201. 3201. 3201. 3231. 3231. 3262. 3293. 3324. 3390. 3458. 3458. 3458. 3493. 3493. 3493. 3493. 3493. 3493. 3528. 3528. 3528. 3565. 3602. 3602. 3602. 3602. 3602. 3640. 3640. 3640. 3679. 3718. 3718. 3759. 3759. 3759. 3759. 3759. 3800. 3800. 3800. 3800. 3800. 3842. 3842. 3842. 3842. 1148. 1148. 1148. 1144. 1144. 1144. 1140. 1136. 1136. 1133. 1133. 1129. 1125. 1125. 1125. 1122. 1118. 1118. 1114. 1111. 1107. 1107. 1104. 1104. 1100. 1097. 1097. 1093. 1090. 1090. 1086. 1079. 1079. 1076. 1076. 1076. 1073. 1073. 1073. 1069. 1066. 1066. 1063. 1063. 1063. 1063. 1063. 1063. 1063. 1060. 1060. 1060. 1060. 1060. 1060. 1060. 1060. 1060. 1060. 1060. 1060. 1060. 1060. 1060. 1063. 1063. 1063. 1060. 1060. 1060. 1060. 1063. 1066. 1066. 1069. 1069. 1069. 1073. 1073. 1073. 1073. 1073. 1073. 1073. 1076. 1076. 1076. 1079. 1083. 1083. 1086. 1086. 1086. 1090. 1090. 1093. 1093. 1097. 1097. 1097. 1097. 1100. 1100. 1100. 1100. 1100. 1104. 1104. 1107. 1107. 1107. 1111. 1111. 1111. 1114. 1114. 1118. 1122. 1122. 1122. 1125. 1125. 1125. 1129. 1129. 1129. 1129. 1129. 1129. 0. 0. 0. 0. 0. 0. 0. 0. 0. 0. 0. 0. 0. 0. 0. 0. 0. 0. 0. 0. 0. 0. 0. 0. 0. 0. 0. 0. 0. 0. 0. 0. 0. 0. 0. 0. 0. 0. 0. 0. 0. 0. 0. 0. 0. 0. 0. 0. 0. 0. 0. 0. 0. 0. 0. 0. 0. 0. 0. 0. 0. 0. 0. 0. 0. 0. 0. 0. 0. 0. 0. 0. 0. 0. 0. 0. 0. 0. 0. 0. 0. 0. 0. 0. 0. 0. 0. 0. 0. 0. 0. 0. 0. 0. 0. 0. 0. 0. 0. 0. 0. 0. 0. 0. 0. 0. 0. 0. 0. 0. 0. 0. 0. 0. 0. 0. 0. 0. 0. 0. 0. 0. 0. 0. 0. 0. 0. 0. 0. 0. 0. 0. 0. 0. 0. 0. 0. 0. 0. 0. 0. 0. 0. 0. 0. 0. 0. 0. 0. 0. 0. 0. 0. 0. 0. 0. 0. 0. 0. 0. 0. 0. 0. 0. 0. 0. 0. 0. 0. 0. 0. 0. 0. 0. 0. 0. 0. 0. 0. 0. 0. 0. 0. 0. 0. 0. 0. 0. 0. 0. 0. 0. 0. 0. 0. 0. 0. 0. 0. 0. 0. 0. 0. 0. 0. 0. 0. 0. 0. 0. 0. 0. 0. 0. 0. 0. 0. 0. 0. 0. 0. 0. 0. 0. 0. 0. 0. 0. 0. 0. 0. 0. 0. 0. 0. 0. 0. 0. 0. 0. 0. 0. 2304. 0. 0. 0. 0. 0. 0. 0. 0. 0. 0. 0. 0. 0. 0. 0. 0. 0. 2259. 2259. 2259. 2259. 2274. 0. 0. 0. 0. 0. 0. 0. 0. 0. 0. 0. 0. 0. 0. 1909. 1899. 1899. 1899. 1899. 1899. 1888. 1888. 1888. 1888. 1888. 1888. 1878. 1878. 1888.
    0. 0. 0. 0. 0. 0. 0. 0. 2505. 2505. 2523. 2523. 2542. 2560. 2560. 2560. 2560. 2560. 2560. 2580. 2580. 2580. 2599. 2599. 2619. 2619. 2619. 2619. 2639. 2659. 2659. 2659. 2680. 2701. 2680. 2680. 2680. 2680. 2701. 2701. 2722. 2722. 2722. 2722. 2722. 2722. 2743. 2743. 2743. 2765. 2765. 2788. 2788. 2788. 2788. 2788. 2810. 2810. 2810. 2810. 2810. 2834. 2857. 2857. 2857. 2857. 2881. 2881. 2905. 2905. 2881. 0. 0. 0. 0. 0. 0. 2955. 2980. 2980. 2980. 2980. 3006. 3006. 2980. 3006. 3006. 3006. 3006. 3006. 3033. 3033. 3033. 3059. 3087. 3087. 3087. 3087. 3115. 3087. 3087. 3115. 3143. 3143. 3172. 3143. 3143. 3172. 3172. 3172. 3172. 3172. 3172. 3172. 3172. 3172. 3172. 3172. 3172. 3143. 3143. 3115. 3087. 3087. 3087. 3087. 3087. 3087. 3087. 3087. 3087. 3087. 3115. 3087. 3087. 3087. 3087. 3087. 3087. 3087. 3059. 3059. 3033. 3033. 3033. 3033. 3033. 3033. 3033. 3033. 3033. 3059. 3059. 3087. 3087. 3087. 3087. 3087. 3087. 3087. 3115. 3115. 3115. 3115. 3115. 3143. 3143. 3143. 3172. 3172. 3201. 3201. 3201. 3231. 3231. 3262. 3293. 3324. 3423. 3458. 3458. 3493. 3493. 3493. 3493. 3493. 3493. 3493. 3528. 3528. 3528. 3565. 3602. 3602. 3602. 3602. 3640. 3640. 3640. 3679. 3679. 3718. 3718. 3759. 3759. 3759. 3759. 3759. 3800. 3800. 3800. 3800. 3759. 3800. 3842. 3842. 1148. 1148. 1148. 1148. 1144. 1144. 1144. 1140. 1136. 1136. 1133. 1133. 1133. 1129. 1125. 1125. 1122. 1118. 1118. 1118. 1114. 1107. 1107. 1107. 1104. 1100. 1097. 1097. 1093. 1090. 1090. 1086. 1079. 1079. 1076. 1076. 1076. 1073. 1073. 1073. 1069. 1069. 1066. 1063. 1063. 1063. 1063. 1063. 1063. 1063. 1063. 1060. 1060. 1060. 1060. 1060. 1060. 1060. 1060. 1060. 1060. 1060. 1060. 1060. 1060. 1063. 1063. 1063. 1060. 1060. 1060. 1063. 1063. 1066. 1066. 1069. 1069. 1069. 1073. 1073. 1073. 1073. 1073. 1073. 1076. 1076. 1076. 1076. 1083. 1083. 1083. 1086. 1086. 1086. 1090. 1090. 1093. 1093. 1097. 1097. 1097. 1097. 1100. 1100. 1097. 1100. 1100. 1104. 1107. 1107. 1107. 1107. 1111. 1111. 1111. 1114. 1114. 1118. 1118. 1122. 1122. 1125. 1125. 1125. 1129. 1129. 1129. 1129. 1129. 1129. 1125. 0. 0. 0. 0. 0. 0. 0. 0. 0. 0. 0. 0. 0. 0. 0. 0. 0. 0. 0. 0. 0. 0. 0. 0. 0. 0. 0. 0. 0. 0. 0. 0. 0. 0. 0. 0. 0. 0. 0. 0. 0. 0. 0. 0. 0. 0. 0. 0. 0. 0. 0. 0. 0. 0. 0. 0. 0. 0. 0. 0. 0. 0. 0. 0. 0. 0. 0. 0. 0. 0. 0. 0. 0. 0. 0. 0. 0. 0. 0. 0. 0. 0. 0. 0. 0. 0. 0. 0. 0. 0. 0. 0. 0. 0. 0. 0. 0. 0. 0. 0. 0. 0. 0. 0. 0. 0. 0. 0. 0. 0. 0. 0. 0. 0. 0. 0. 0. 0. 0. 0. 0. 0. 0. 0. 0. 0. 0. 0. 0. 0. 0. 0. 0. 0. 0. 0. 0. 0. 0. 0. 0. 0. 0. 0. 0. 0. 0. 0. 0. 0. 0. 0. 0. 0. 0. 0. 0. 0. 0. 0. 0. 0. 0. 0. 0. 0. 0. 0. 0. 0. 0. 0. 0. 0. 0. 0. 0. 0. 0. 0. 0. 0. 0. 0. 0. 0. 0. 0. 0. 0. 0. 0. 0. 0. 0. 0. 0. 0. 0. 0. 0. 0. 0. 0. 0. 0. 0. 0. 0. 0. 0. 0. 0. 0. 0. 0. 0. 0. 0. 0. 0. 0. 0. 0. 0. 0. 0. 0. 0. 0. 0. 0. 0. 0. 0. 0. 0. 0. 0. 0. 2304. 2304. 2335. 0. 0. 0. 0. 0. 0. 0. 0. 0. 0. 0. 0. 0. 0. 0. 0. 2259. 2259. 2259. 2259. 2274. 2274. 0. 0. 0. 0. 0. 0. 0. 0. 0. 0. 0. 0. 0. 1909. 1909. 1899. 1899. 1899. 1899. 1888. 1888. 1888. 1888. 1888. 1888. 1878. 1878. 1888.
    0. 0. 0. 0. 0. 0. 0. 0. 2487. 2505. 2523. 2523. 2542. 2542. 2560. 2560. 2560. 2580. 2580. 2580. 2580. 2580. 2599. 2619. 2619. 2619. 2619. 2619. 2639. 2639. 2659. 2659. 2659. 2680. 2659. 2659. 2680. 2680. 2701. 2701. 2701. 2722. 2722. 2722. 2722. 2722. 2743. 2765. 2743. 2765. 2765. 2788. 2788. 2788. 2788. 2788. 2788. 2810. 2810. 2810. 2810. 2834. 2857. 2857. 2857. 2881. 2857. 2881. 2905. 2905. 2881. 2881. 2881. 0. 2955. 2955. 2955. 2930. 2955. 2955. 2955. 2980. 2980. 2980. 2980. 2980. 2980. 2980. 3006. 3006. 3006. 3006. 3033. 3059. 3059. 3087. 3087. 3087. 3087. 3087. 3087. 3115. 3143. 3172. 3172. 3143. 3143. 3143. 3172. 3172. 3172. 3172. 3172. 3172. 3172. 3172. 3172. 3172. 3172. 3143. 3143. 3115. 3087. 3087. 3087. 3087. 3087. 3087. 3087. 3087. 3115. 3087. 3115. 3087. 3087. 3087. 3087. 3087. 3087. 3087. 3059. 3033. 3033. 3033. 3033. 3033. 3033. 3033. 3033. 3033. 3033. 3059. 3059. 3087. 3087. 3087. 3087. 3087. 3087. 3087. 3115. 3087. 3115. 3115. 3115. 3115. 3143. 3143. 3143. 3172. 3172. 3201. 3201. 3201. 3231. 3262. 3293. 3357. 3423. 3458. 3493. 3493. 3493. 3493. 3493. 3493. 3493. 3493. 3528. 3528. 3528. 3565. 3602. 3602. 3602. 3602. 3640. 3640. 3679. 3679. 3718. 3718. 3759. 3759. 3759. 3759. 3759. 3759. 3800. 3800. 3800. 3800. 3800. 3800. 3842. 3842. 1148. 1151. 1148. 1148. 1144. 1144. 1144. 1140. 1136. 1136. 1136. 1133. 1133. 1129. 1125. 1125. 1122. 1118. 1118. 1118. 1114. 1111. 1107. 1107. 1104. 1100. 1097. 1097. 1093. 1090. 1090. 1086. 1083. 1079. 1076. 1076. 1076. 1073. 1073. 1073. 1069. 1066. 1066. 1066. 1066. 1063. 1063. 1063. 1063. 1063. 1063. 1063. 1060. 1060. 1060. 1060. 1060. 1060. 1060. 1060. 1060. 1060. 1060. 1060. 1063. 1063. 1063. 1063. 1060. 1060. 1060. 1063. 1063. 1066. 1066. 1069. 1069. 1069. 1073. 1073. 1073. 1073. 1073. 1073. 1076. 1076. 1076. 1079. 1083. 1083. 1083. 1086. 1086. 1086. 1086. 1090. 1093. 1093. 1097. 1097. 1097. 1097. 1100. 1100. 1097. 1100. 1100. 1104. 1104. 1107. 1107. 1107. 1111. 1111. 1111. 1114. 1118. 1118. 1118. 1122. 1122. 1122. 1125. 1125. 1125. 1129. 1129. 1129. 1129. 1129. 0. 0. 0. 0. 0. 0. 0. 0. 0. 0. 0. 0. 0. 0. 0. 0. 0. 0. 0. 0. 0. 0. 0. 0. 0. 0. 0. 0. 0. 0. 0. 0. 0. 0. 0. 0. 0. 0. 0. 0. 0. 0. 0. 0. 0. 0. 0. 0. 0. 0. 0. 0. 0. 0. 0. 0. 0. 0. 0. 0. 0. 0. 0. 0. 0. 0. 0. 0. 0. 0. 0. 0. 0. 0. 0. 0. 0. 0. 0. 0. 0. 0. 0. 0. 0. 0. 0. 0. 0. 0. 0. 0. 0. 0. 0. 0. 0. 0. 0. 0. 0. 0. 0. 0. 0. 0. 0. 0. 0. 0. 0. 0. 0. 0. 0. 0. 0. 0. 0. 0. 0. 0. 0. 0. 0. 0. 0. 0. 0. 0. 0. 0. 0. 0. 0. 0. 0. 0. 0. 0. 0. 0. 0. 0. 0. 0. 0. 0. 0. 0. 0. 0. 0. 0. 0. 0. 0. 0. 0. 0. 0. 0. 0. 0. 0. 0. 0. 0. 0. 0. 0. 0. 0. 0. 0. 0. 0. 0. 0. 0. 0. 0. 0. 0. 0. 0. 0. 0. 0. 0. 0. 0. 0. 0. 0. 0. 0. 0. 0. 0. 0. 0. 0. 0. 0. 0. 0. 0. 0. 0. 0. 0. 0. 0. 0. 0. 0. 0. 0. 0. 0. 0. 0. 0. 0. 0. 0. 0. 0. 0. 0. 0. 0. 0. 0. 0. 0. 0. 0. 0. 0. 2320. 2320. 2335. 0. 0. 0. 0. 0. 0. 0. 0. 0. 0. 0. 0. 0. 0. 0. 0. 0. 2259. 2259. 2274. 2274. 0. 0. 0. 0. 0. 0. 0. 0. 0. 0. 0. 0. 0. 0. 1920. 1920. 1909. 1909. 1909. 1909. 1899. 1888. 1888. 1888. 1888. 1878. 1878. 1878. 1888.
    0. 0. 0. 0. 0. 0. 0. 0. 2505. 2505. 2523. 2523. 2523. 2542. 2542. 2560. 2560. 2580. 2560. 2580. 2580. 2599. 2599. 2619. 2619. 2619. 2619. 2619. 2639. 2639. 2659. 2659. 2659. 2659. 2659. 2659. 2680. 2680. 2680. 2701. 2701. 2722. 2722. 2722. 2722. 2722. 2722. 2743. 2743. 2743. 2765. 2765. 2765. 2788. 2788. 2788. 2788. 2810. 2810. 2810. 2810. 2834. 2857. 2857. 2857. 2881. 2881. 2881. 2905. 2905. 2881. 2881. 2881. 2905. 2905. 2930. 2955. 2955. 2955. 2955. 2955. 2955. 2980. 2980. 2980. 2980. 2980. 2980. 2980. 2980. 3006. 3006. 3006. 3033. 3059. 3087. 3087. 3087. 3087. 3087. 3087. 3115. 3115. 3143. 3143. 3143. 3143. 3143. 3143. 3172. 3172. 3172. 3172. 3172. 3172. 3172. 3172. 3172. 3172. 3143. 3143. 3115. 3087. 3087. 3087. 3087. 3087. 3087. 3115. 3087. 3115. 3115. 3115. 3087. 3087. 3087. 3087. 3087. 3087. 3087. 3059. 3033. 3033. 3033. 3033. 3033. 3033. 3033. 3033. 3033. 3033. 3033. 3059. 3087. 3087. 3087. 3087. 3087. 3087. 3087. 3087. 3087. 3087. 3115. 3115. 3143. 3143. 3143. 3143. 3172. 3201. 3201. 3201. 3231. 3231. 3262. 3324. 3357. 3423. 3458. 3493. 3493. 3493. 3493. 3493. 3493. 3493. 3493. 3528. 3528. 3528. 3565. 3602. 3602. 3602. 3602. 3640. 3640. 3640. 3679. 3718. 3718. 3718. 3759. 3759. 3759. 3759. 3759. 3800. 3800. 3800. 3800. 3800. 3800. 3842. 3842. 1148. 1151. 1148. 1148. 1148. 1144. 1144. 1140. 1136. 1136. 1136. 1133. 1133. 1129. 1129. 1125. 1122. 1118. 1118. 1114. 1114. 1111. 1107. 1107. 1104. 1100. 1100. 1097. 1093. 1090. 1090. 1086. 1083. 1079. 1079. 1076. 1076. 1076. 1073. 1073. 1069. 1069. 1069. 1066. 1066. 1066. 1063. 1063. 1063. 1063. 1063. 1063. 1063. 1063. 1063. 1063. 1063. 1060. 1060. 1060. 1060. 1060. 1060. 1063. 1063. 1063. 1063. 1063. 1060. 1060. 1060. 1063. 1066. 1066. 1069. 1069. 1069. 1069. 1073. 1073. 1073. 1073. 1073. 1073. 1076. 1076. 1076. 1076. 1079. 1083. 1083. 1086. 1086. 1086. 1086. 1090. 1093. 1093. 1097. 1097. 1097. 1097. 1100. 1100. 1097. 1100. 1100. 1104. 1104. 1107. 1107. 1107. 1111. 1111. 1111. 1114. 1118. 1118. 1122. 1122. 1122. 1122. 1125. 1125. 1125. 1129. 1129. 1129. 1129. 1129. 1129. 0. 0. 0. 0. 0. 0. 0. 0. 0. 0. 0. 0. 0. 0. 0. 0. 0. 0. 0. 0. 0. 0. 0. 0. 0. 0. 0. 0. 0. 0. 0. 0. 0. 0. 0. 0. 0. 0. 0. 0. 0. 0. 0. 0. 0. 0. 0. 0. 0. 0. 0. 0. 0. 0. 0. 0. 0. 0. 0. 0. 0. 0. 0. 0. 0. 0. 0. 0. 0. 0. 0. 0. 0. 0. 0. 0. 0. 0. 0. 0. 0. 0. 0. 0. 0. 0. 0. 0. 0. 0. 0. 0. 0. 0. 0. 0. 0. 0. 0. 0. 0. 0. 0. 0. 0. 0. 0. 0. 0. 0. 0. 0. 0. 0. 0. 0. 0. 0. 0. 0. 0. 0. 0. 0. 0. 0. 0. 0. 0. 0. 0. 0. 0. 0. 0. 0. 0. 0. 0. 0. 0. 0. 0. 0. 0. 0. 0. 0. 0. 0. 0. 0. 0. 0. 0. 0. 0. 0. 0. 0. 0. 0. 0. 0. 0. 0. 0. 0. 0. 0. 0. 0. 0. 0. 0. 0. 0. 0. 0. 0. 0. 0. 0. 0. 0. 0. 0. 0. 0. 0. 0. 0. 0. 0. 0. 0. 0. 0. 0. 0. 0. 0. 0. 0. 0. 0. 0. 0. 0. 0. 0. 0. 0. 0. 0. 0. 0. 0. 0. 0. 0. 0. 0. 0. 0. 0. 0. 0. 0. 0. 0. 0. 0. 0. 0. 0. 0. 0. 0. 2304. 2304. 2320. 2320. 2320. 0. 0. 2320. 0. 0. 0. 0. 0. 0. 0. 0. 0. 0. 0. 0. 2259. 2259. 2274. 2274. 2289. 2289. 0. 0. 0. 0. 0. 0. 0. 0. 0. 0. 0. 0. 1931. 1920. 1920. 1920. 1909. 1920. 1909. 1899. 1899. 1888. 1888. 1888. 1888. 1888. 1878. 1888.
    0. 0. 0. 0. 0. 0. 0. 0. 2505. 2505. 2523. 2523. 2523. 2542. 2542. 2560. 2560. 2580. 2560. 2580. 2580. 2599. 2599. 2619. 2619. 2619. 2619. 2619. 2639. 2639. 2639. 2659. 2659. 2659. 2659. 2659. 2680. 2680. 2701. 2701. 2701. 2701. 2722. 2722. 2722. 2722. 2722. 2743. 2743. 2743. 2743. 2765. 2765. 2765. 2788. 2788. 2788. 2810. 2810. 2810. 2834. 2857. 2857. 2857. 2881. 2881. 2881. 2881. 2881. 2905. 2881. 2881. 2881. 2881. 2881. 2905. 2905. 2930. 2930. 2955. 2955. 2955. 2980. 2980. 2980. 2980. 2980. 2980. 2980. 2980. 2980. 2980. 3006. 3033. 3059. 3059. 3087. 3087. 3087. 3087. 3087. 3115. 3115. 3115. 3143. 3115. 3115. 3115. 3143. 3143. 3143. 3172. 3172. 3172. 3172. 3172. 3172. 3172. 3143. 3143. 3143. 3115. 3087. 3087. 3087. 3087. 3087. 3087. 3087. 3087. 3087. 3087. 3087. 3087. 3087. 3087. 3087. 3087. 3087. 3087. 3059. 3033. 3033. 3033. 3033. 3033. 3033. 3033. 3033. 3033. 3033. 3033. 3059. 3087. 3087. 3087. 3087. 3087. 3087. 3087. 3087. 3087. 3087. 3087. 3115. 3143. 3143. 3143. 3143. 3172. 3172. 3201. 3201. 3231. 3231. 3262. 3324. 3357. 3423. 3458. 3458. 3493. 3493. 3493. 3493. 3493. 3493. 3493. 3528. 3528. 3528. 3565. 3602. 3602. 3602. 3640. 3640. 3640. 3679. 3679. 3718. 3718. 3759. 3759. 3759. 3759. 3759. 3759. 3800. 3800. 3800. 3800. 3759. 3800. 3842. 3885. 1148. 1151. 1148. 1148. 1148. 1144. 1144. 1140. 1136. 1136. 1136. 1133. 1133. 1129. 1129. 1125. 1122. 1122. 1118. 1118. 1114. 1111. 1107. 1107. 1104. 1104. 1100. 1097. 1093. 1090. 1090. 1086. 1083. 1079. 1079. 1076. 1076. 1076. 1073. 1073. 1073. 1069. 1069. 1069. 1066. 1066. 1066. 1063. 1063. 1063. 1063. 1063. 1063. 1063. 1063. 1063. 1063. 1063. 1060. 1060. 1063. 1060. 1063. 1063. 1063. 1063. 1063. 1066. 1063. 1063. 1063. 1063. 1066. 1066. 1069. 1069. 1069. 1069. 1073. 1073. 1073. 1073. 1073. 1073. 1076. 1076. 1076. 1079. 1083. 1083. 1083. 1086. 1086. 1086. 1086. 1090. 1090. 1093. 1097. 1097. 1097. 1097. 1097. 1100. 1097. 1100. 1100. 1104. 1104. 1107. 1107. 1107. 1111. 1111. 1111. 1114. 1118. 1118. 1118. 1122. 1122. 1122. 1125. 1125. 1129. 1129. 1129. 1129. 1129. 1133. 1133. 0. 0. 0. 0. 0. 0. 0. 0. 0. 0. 0. 0. 0. 0. 0. 0. 0. 0. 0. 0. 0. 0. 0. 0. 0. 0. 0. 0. 0. 0. 0. 0. 0. 0. 0. 0. 0. 0. 0. 0. 0. 0. 0. 0. 0. 0. 0. 0. 0. 0. 0. 0. 0. 0. 0. 0. 0. 0. 0. 0. 0. 0. 0. 0. 0. 0. 0. 0. 0. 0. 0. 0. 0. 0. 0. 0. 0. 0. 0. 0. 0. 0. 0. 0. 0. 0. 0. 0. 0. 0. 0. 0. 0. 0. 0. 0. 0. 0. 0. 0. 0. 0. 0. 0. 0. 0. 0. 0. 0. 0. 0. 0. 0. 0. 0. 0. 0. 0. 0. 0. 0. 0. 0. 0. 0. 0. 0. 0. 0. 0. 0. 0. 0. 0. 0. 0. 0. 0. 0. 0. 0. 0. 0. 0. 0. 0. 0. 0. 0. 0. 0. 0. 0. 0. 0. 0. 0. 0. 0. 0. 0. 0. 0. 0. 0. 0. 0. 0. 0. 0. 0. 0. 0. 0. 0. 0. 0. 0. 0. 0. 0. 0. 0. 0. 0. 0. 0. 0. 0. 0. 0. 0. 0. 0. 0. 0. 0. 0. 0. 0. 0. 0. 0. 0. 0. 0. 0. 0. 0. 0. 0. 0. 0. 0. 0. 0. 0. 0. 0. 0. 0. 0. 0. 0. 0. 0. 0. 0. 0. 0. 0. 0. 0. 0. 0. 0. 0. 0. 0. 2289. 2289. 2304. 2304. 2304. 2320. 2304. 2320. 0. 0. 0. 0. 0. 0. 0. 0. 0. 0. 0. 0. 2274. 2274. 2274. 2274. 2289. 2289. 0. 0. 0. 0. 0. 0. 0. 0. 0. 0. 0. 0. 0. 1931. 1931. 1920. 1920. 1920. 1920. 1909. 1899. 1888. 1888. 1888. 1888. 1878. 1878. 1888.
    0. 0. 0. 0. 0. 0. 0. 0. 2505. 2505. 2505. 2523. 2523. 2542. 2560. 2560. 2560. 2580. 2580. 2580. 2580. 2599. 2599. 2619. 2619. 2619. 2619. 2619. 2619. 2639. 2639. 2639. 2639. 2659. 2659. 2659. 2680. 2680. 2701. 2701. 2701. 2701. 2722. 2722. 2722. 2722. 2722. 2722. 2743. 2743. 2743. 2765. 2765. 2765. 2788. 2788. 2788. 2788. 2810. 2810. 2834. 2857. 2857. 2857. 2881. 2881. 2857. 2881. 2881. 2881. 2857. 2881. 2881. 2881. 2881. 2905. 2905. 2930. 2930. 2930. 2955. 2955. 2980. 2955. 2980. 2980. 2980. 2980. 2980. 2980. 2980. 2980. 3006. 3033. 3033. 3059. 3087. 3087. 3087. 3087. 3087. 3115. 3115. 3115. 3143. 3115. 3115. 3115. 3143. 3143. 3143. 3172. 3172. 3172. 3172. 3172. 3172. 3172. 3172. 3143. 3143. 3115. 3087. 3087. 3087. 3087. 3087. 3087. 3087. 3115. 3115. 3115. 3115. 3087. 3087. 3087. 3087. 3087. 3087. 3087. 3059. 3033. 3033. 3033. 3033. 3033. 3033. 3033. 3033. 3033. 3033. 3033. 3059. 3059. 3087. 3087. 3087. 3059. 3087. 3087. 3087. 3087. 3087. 3087. 3115. 3143. 3143. 3143. 3143. 3172. 3172. 3201. 3201. 3231. 3231. 3262. 3324. 3357. 3423. 3458. 3493. 3493. 3493. 3493. 3493. 3493. 3493. 3493. 3528. 3528. 3528. 3565. 3565. 3602. 3602. 3640. 3640. 3640. 3679. 3679. 3718. 3718. 3718. 3759. 3759. 3759. 3759. 3759. 3800. 3800. 3800. 3800. 3759. 3759. 3800. 1151. 1148. 1151. 1148. 1148. 1148. 1144. 1144. 1140. 1136. 1136. 1136. 1133. 1133. 1133. 1129. 1129. 1125. 1122. 1118. 1118. 1114. 1111. 1107. 1107. 1104. 1104. 1100. 1097. 1093. 1090. 1090. 1090. 1083. 1083. 1079. 1079. 1076. 1076. 1076. 1073. 1073. 1069. 1069. 1069. 1069. 1066. 1066. 1066. 1066. 1063. 1063. 1063. 1063. 1063. 1063. 1063. 1063. 1063. 1063. 1063. 1063. 1063. 1063. 1063. 1063. 1063. 1066. 1066. 1063. 1063. 1063. 1066. 1066. 1066. 1066. 1069. 1069. 1069. 1073. 1073. 1073. 1076. 1076. 1076. 1079. 1079. 1079. 1079. 1083. 1083. 1083. 1086. 1086. 1086. 1086. 1090. 1090. 1093. 1093. 1093. 1097. 1097. 1097. 1100. 1097. 1100. 1100. 1104. 1104. 1107. 1107. 1107. 1107. 1111. 1111. 1114. 1118. 1118. 1118. 1122. 1122. 1122. 1125. 1125. 1125. 1129. 1129. 1129. 1129. 1129. 1129. 0. 0. 0. 0. 0. 0. 0. 0. 0. 0. 0. 0. 0. 0. 0. 0. 0. 0. 0. 0. 0. 0. 0. 0. 0. 0. 0. 0. 0. 0. 0. 0. 0. 0. 0. 0. 0. 0. 0. 0. 0. 0. 0. 0. 0. 0. 0. 0. 0. 0. 0. 0. 0. 0. 0. 0. 0. 0. 0. 0. 0. 0. 0. 0. 0. 0. 0. 0. 0. 0. 0. 0. 0. 0. 0. 0. 0. 0. 0. 0. 0. 0. 0. 0. 0. 0. 0. 0. 0. 0. 0. 0. 0. 0. 0. 0. 0. 0. 0. 0. 0. 0. 0. 0. 0. 0. 0. 0. 0. 0. 0. 0. 0. 0. 0. 0. 0. 0. 0. 0. 0. 0. 0. 0. 0. 0. 0. 0. 0. 0. 0. 0. 0. 0. 0. 0. 0. 0. 0. 0. 0. 0. 0. 0. 0. 0. 0. 0. 0. 0. 0. 0. 0. 0. 0. 0. 0. 0. 0. 0. 0. 0. 0. 0. 0. 0. 0. 0. 0. 0. 0. 0. 0. 0. 0. 0. 0. 0. 0. 0. 0. 0. 0. 0. 0. 0. 0. 0. 0. 0. 0. 0. 0. 0. 0. 0. 0. 0. 0. 0. 0. 0. 0. 0. 0. 0. 0. 0. 0. 0. 0. 0. 0. 0. 0. 0. 0. 0. 0. 0. 0. 0. 0. 0. 0. 0. 0. 0. 0. 0. 0. 0. 0. 0. 0. 0. 0. 2274. 2289. 2289. 2289. 2304. 2304. 2304. 2320. 2304. 2304. 2304. 2289. 0. 0. 0. 0. 0. 0. 0. 0. 0. 0. 0. 2274. 2274. 2274. 2289. 2289. 0. 0. 0. 0. 0. 0. 0. 0. 0. 0. 0. 0. 1931. 1931. 1931. 1920. 1920. 1920. 1920. 1909. 1899. 1888. 1888. 1888. 1888. 1878. 1878. 1878.
    0. 0. 0. 0. 0. 0. 0. 0. 2505. 2505. 2505. 2523. 2523. 2542. 2542. 2560. 2560. 2580. 2580. 2580. 2580. 2599. 2599. 2599. 2619. 2619. 2619. 2619. 2639. 2639. 2639. 2639. 2659. 2659. 2659. 2659. 2680. 2680. 2701. 2701. 2701. 2701. 2722. 2722. 2722. 2722. 2722. 2743. 2743. 2743. 2743. 2765. 2743. 2765. 2788. 2788. 2788. 2788. 2810. 2810. 2810. 2834. 2834. 2857. 2857. 2881. 2857. 2881. 2881. 2881. 2857. 2881. 2881. 2881. 2881. 2905. 2905. 2930. 2930. 2955. 2955. 2955. 2980. 2955. 2980. 2980. 2980. 2980. 2980. 2980. 2980. 3006. 3006. 3033. 3059. 3059. 3059. 3087. 3087. 3087. 3087. 3115. 3115. 3115. 3115. 3115. 3087. 3087. 3115. 3143. 3143. 3143. 3172. 3172. 3172. 3172. 3172. 3172. 3172. 3143. 3143. 3143. 3115. 3087. 3115. 3115. 3087. 3087. 3115. 3115. 3115. 3115. 3087. 3087. 3087. 3087. 3087. 3087. 3087. 3087. 3059. 3059. 3059. 3059. 3033. 3033. 3033. 3033. 3033. 3033. 3033. 3033. 3059. 3059. 3059. 3087. 3087. 3059. 3059. 3059. 3087. 3087. 3087. 3087. 3115. 3143. 3143. 3143. 3143. 3172. 3172. 3201. 3201. 3231. 3262. 3262. 3293. 3324. 3423. 3458. 3458. 3493. 3493. 3493. 3493. 3493. 3493. 3493. 3528. 3528. 3565. 3565. 3565. 3602. 3602. 3640. 3640. 3640. 3679. 3679. 3718. 3718. 3759. 3759. 3759. 3759. 3759. 3759. 3759. 3800. 3800. 3800. 3759. 3759. 3800. 1148. 1148. 1151. 1148. 1148. 1148. 1148. 1144. 1144. 1140. 1136. 1136. 1133. 1133. 1133. 1129. 1129. 1122. 1122. 1118. 1118. 1114. 1111. 1107. 1107. 1104. 1104. 1100. 1097. 1093. 1090. 1090. 1086. 1083. 1083. 1079. 1079. 1076. 1076. 1076. 1073. 1073. 1073. 1073. 1069. 1069. 1069. 1066. 1066. 1066. 1066. 1063. 1063. 1063. 1063. 1063. 1063. 1063. 1063. 1063. 1063. 1063. 1063. 1063. 1063. 1063. 1066. 1066. 1066. 1063. 1066. 1066. 1066. 1066. 1069. 1069. 1069. 1069. 1069. 1073. 1073. 1073. 1076. 1076. 1076. 1079. 1079. 1079. 1083. 1083. 1083. 1083. 1086. 1086. 1086. 1086. 1090. 1090. 1090. 1093. 1093. 1097. 1097. 1097. 1100. 1097. 1100. 1100. 1104. 1104. 1107. 1107. 1107. 1107. 1111. 1111. 1114. 1118. 1118. 1118. 1122. 1122. 1122. 1125. 1125. 1125. 1125. 1129. 1129. 1125. 1129. 1129. 0. 0. 0. 0. 0. 0. 0. 0. 0. 0. 0. 0. 0. 0. 0. 0. 0. 0. 0. 0. 0. 0. 0. 0. 0. 0. 0. 0. 0. 0. 0. 0. 0. 0. 0. 0. 0. 0. 0. 0. 0. 0. 0. 0. 0. 0. 0. 0. 0. 0. 0. 0. 0. 0. 0. 0. 0. 0. 0. 0. 0. 0. 0. 0. 0. 0. 0. 0. 0. 0. 0. 0. 0. 0. 0. 0. 0. 0. 0. 0. 0. 0. 0. 0. 0. 0. 0. 0. 0. 0. 0. 0. 0. 0. 0. 0. 0. 0. 0. 0. 0. 0. 0. 0. 0. 0. 0. 0. 0. 0. 0. 0. 0. 0. 0. 0. 0. 0. 0. 0. 0. 0. 0. 0. 0. 0. 0. 0. 0. 0. 0. 0. 0. 0. 0. 0. 0. 0. 0. 0. 0. 0. 0. 0. 0. 0. 0. 0. 0. 0. 0. 0. 0. 0. 0. 0. 0. 0. 0. 0. 0. 0. 0. 0. 0. 0. 0. 0. 0. 0. 0. 0. 0. 0. 0. 0. 0. 0. 0. 0. 0. 0. 0. 0. 0. 0. 0. 0. 0. 0. 0. 0. 0. 0. 0. 0. 0. 0. 0. 0. 0. 0. 0. 0. 0. 0. 0. 0. 0. 0. 0. 0. 0. 0. 0. 0. 0. 0. 0. 0. 0. 0. 0. 0. 0. 0. 0. 0. 0. 0. 0. 0. 0. 0. 0. 0. 0. 2289. 2289. 2274. 2289. 2289. 2304. 2304. 2304. 2304. 2304. 2304. 2304. 0. 0. 0. 0. 0. 0. 0. 0. 0. 0. 0. 2289. 2274. 2289. 2289. 2289. 0. 0. 0. 0. 0. 0. 0. 0. 0. 0. 0. 0. 1920. 1920. 1920. 1920. 1920. 1920. 1920. 1909. 1899. 1888. 1878. 1888. 1878. 1878. 1878. 1878.
    0. 0. 0. 0. 0. 0. 0. 0. 2505. 2505. 2505. 2523. 2523. 2542. 2542. 2560. 2560. 2580. 2580. 2580. 2580. 2599. 2599. 2619. 2619. 2619. 2619. 2619. 2619. 2639. 2639. 2639. 2639. 2659. 2639. 2659. 2680. 2680. 2701. 2701. 2701. 2701. 2722. 2722. 2722. 2722. 2722. 2722. 2743. 2743. 2743. 2743. 2765. 2765. 2788. 2788. 2788. 2788. 2810. 2810. 2810. 2834. 2834. 2857. 2857. 2881. 2881. 2881. 2881. 2881. 2881. 2881. 2881. 2881. 2881. 2905. 2905. 2930. 2930. 2930. 2955. 2955. 2980. 2980. 2980. 2980. 2980. 2980. 2980. 2980. 2980. 2980. 3006. 3033. 3033. 3059. 3059. 3059. 3087. 3087. 3087. 3115. 3115. 3115. 3115. 3115. 3087. 3115. 3115. 3143. 3143. 3143. 3172. 3172. 3172. 3172. 3172. 3172. 3172. 3143. 3143. 3143. 3115. 3087. 3087. 3087. 3087. 3087. 3087. 3115. 3087. 3115. 3087. 3087. 3087. 3087. 3087. 3087. 3087. 3087. 3059. 3033. 3033. 3033. 3033. 3033. 3033. 3033. 3033. 3033. 3033. 3033. 3059. 3059. 3087. 3087. 3087. 3059. 3059. 3087. 3087. 3087. 3087. 3087. 3115. 3143. 3143. 3143. 3143. 3172. 3172. 3201. 3201. 3231. 3231. 3262. 3293. 3324. 3390. 3458. 3458. 3493. 3493. 3493. 3528. 3528. 3528. 3493. 3528. 3528. 3565. 3565. 3602. 3602. 3602. 3640. 3640. 3640. 3640. 3679. 3718. 3718. 3718. 3759. 3759. 3759. 3759. 3759. 3800. 3800. 3800. 3800. 3759. 3759. 3759. 1148. 1148. 1151. 1148. 1148. 1148. 1144. 1144. 1144. 1140. 1136. 1136. 1133. 1133. 1133. 1129. 1129. 1122. 1122. 1118. 1118. 1114. 1111. 1107. 1107. 1104. 1104. 1100. 1100. 1097. 1090. 1090. 1086. 1083. 1083. 1083. 1079. 1076. 1076. 1076. 1076. 1073. 1073. 1073. 1069. 1069. 1069. 1066. 1066. 1066. 1066. 1066. 1063. 1063. 1063. 1063. 1063. 1063. 1063. 1063. 1063. 1063. 1063. 1063. 1063. 1066. 1066. 1066. 1069. 1066. 1066. 1066. 1066. 1069. 1069. 1069. 1069. 1069. 1069. 1073. 1073. 1073. 1076. 1076. 1079. 1079. 1079. 1083. 1083. 1083. 1083. 1086. 1086. 1086. 1086. 1090. 1090. 1090. 1090. 1093. 1093. 1097. 1097. 1100. 1100. 1097. 1097. 1100. 1104. 1104. 1104. 1107. 1107. 1107. 1111. 1111. 1114. 1118. 1118. 1118. 1122. 1122. 1122. 1125. 1125. 1125. 1125. 1125. 1129. 1129. 1129. 0. 0. 0. 0. 0. 0. 0. 0. 0. 0. 0. 0. 0. 0. 0. 0. 0. 0. 0. 0. 0. 0. 0. 0. 0. 0. 0. 0. 0. 0. 0. 0. 0. 0. 0. 0. 0. 0. 0. 0. 0. 0. 0. 0. 0. 0. 0. 0. 0. 0. 0. 0. 0. 0. 0. 0. 0. 0. 0. 0. 0. 0. 0. 0. 0. 0. 0. 0. 0. 0. 0. 0. 0. 0. 0. 0. 0. 0. 0. 0. 0. 0. 0. 0. 0. 0. 0. 0. 0. 0. 0. 0. 0. 0. 0. 0. 0. 0. 0. 0. 0. 0. 0. 0. 0. 0. 0. 0. 0. 0. 0. 0. 0. 0. 0. 0. 0. 0. 0. 0. 0. 0. 0. 0. 0. 0. 0. 0. 0. 0. 0. 0. 0. 0. 0. 0. 0. 0. 0. 0. 0. 0. 0. 0. 0. 0. 0. 0. 0. 0. 0. 0. 0. 0. 0. 0. 0. 0. 0. 0. 0. 0. 0. 0. 0. 0. 0. 0. 0. 0. 0. 0. 0. 0. 0. 0. 0. 0. 0. 0. 0. 0. 0. 0. 0. 0. 0. 0. 0. 0. 0. 0. 0. 0. 0. 0. 0. 0. 0. 0. 0. 0. 0. 0. 0. 0. 0. 0. 0. 0. 0. 0. 0. 0. 0. 0. 0. 0. 0. 0. 0. 0. 0. 0. 0. 0. 0. 0. 0. 0. 0. 0. 0. 0. 0. 0. 0. 2274. 2289. 2274. 2274. 2289. 2289. 2289. 2289. 2304. 2304. 2304. 2304. 2304. 0. 0. 0. 0. 0. 0. 0. 0. 0. 0. 2274. 2274. 2274. 2274. 2274. 2289. 0. 0. 0. 0. 0. 0. 0. 0. 0. 0. 0. 1909. 1909. 1920. 1920. 1920. 1920. 1920. 1920. 1909. 1899. 1888. 1878. 1888. 1878. 1878. 1878. 1878.
    0. 0. 0. 0. 0. 0. 0. 0. 2505. 2505. 2505. 2523. 2523. 2542. 2542. 2560. 2560. 2580. 2580. 2580. 2580. 2599. 2599. 2599. 2619. 2619. 2619. 2619. 2619. 2639. 2639. 2639. 2659. 2659. 2639. 2659. 2680. 2680. 2701. 2701. 2701. 2701. 2701. 2701. 2722. 2722. 2722. 2722. 2722. 2722. 2722. 2743. 2743. 2765. 2788. 2788. 2788. 2810. 2810. 2810. 2810. 2834. 2834. 2834. 2857. 2881. 2881. 2881. 2881. 2881. 2881. 2881. 2881. 2881. 2881. 2905. 2905. 2930. 2930. 2930. 2955. 2955. 2980. 2980. 2980. 2980. 2980. 2980. 2980. 2980. 3006. 3006. 3033. 3033. 3059. 3059. 3059. 3087. 3087. 3087. 3087. 3087. 3115. 3115. 3115. 3115. 3087. 3115. 3115. 3143. 3143. 3143. 3172. 3172. 3172. 3172. 3172. 3172. 3172. 3172. 3143. 3143. 3115. 3115. 3115. 3115. 3087. 3087. 3087. 3087. 3115. 3115. 3087. 3087. 3087. 3087. 3087. 3087. 3087. 3087. 3059. 3033. 3033. 3033. 3033. 3033. 3033. 3033. 3033. 3033. 3059. 3059. 3059. 3059. 3087. 3059. 3059. 3059. 3059. 3087. 3087. 3087. 3087. 3115. 3115. 3143. 3143. 3143. 3172. 3172. 3172. 3201. 3201. 3231. 3231. 3262. 3293. 3324. 3357. 3423. 3458. 3458. 3493. 3493. 3493. 3528. 3493. 3493. 3528. 3528. 3565. 3565. 3565. 3602. 3602. 3640. 3640. 3640. 3640. 3679. 3679. 3718. 3718. 3759. 3759. 3759. 3759. 3759. 3800. 3800. 3800. 3759. 3759. 3759. 3759. 1148. 1148. 1148. 1148. 1148. 1144. 1144. 1144. 1140. 1136. 1136. 1136. 1133. 1133. 1133. 1129. 1125. 1122. 1122. 1118. 1118. 1114. 1111. 1107. 1107. 1104. 1104. 1104. 1100. 1097. 1093. 1090. 1090. 1083. 1083. 1083. 1079. 1076. 1076. 1076. 1076. 1073. 1073. 1073. 1073. 1069. 1069. 1069. 1069. 1069. 1066. 1066. 1063. 1063. 1063. 1063. 1063. 1063. 1063. 1063. 1063. 1063. 1063. 1063. 1066. 1066. 1069. 1069. 1069. 1066. 1066. 1066. 1069. 1069. 1069. 1069. 1069. 1069. 1073. 1073. 1073. 1076. 1076. 1076. 1079. 1079. 1079. 1083. 1083. 1083. 1083. 1086. 1086. 1086. 1090. 1090. 1090. 1090. 1093. 1093. 1093. 1097. 1097. 1097. 1100. 1097. 1097. 1100. 1104. 1104. 1104. 1107. 1107. 1107. 1111. 1111. 1114. 1118. 1118. 1122. 1122. 1122. 1122. 1125. 1125. 1125. 1125. 1129. 1129. 1129. 0. 0. 0. 0. 0. 0. 0. 0. 0. 0. 0. 0. 0. 0. 0. 0. 0. 0. 0. 0. 0. 0. 0. 0. 0. 0. 0. 0. 0. 0. 0. 0. 0. 0. 0. 0. 0. 0. 0. 0. 0. 0. 0. 0. 0. 0. 0. 0. 0. 0. 0. 0. 0. 0. 0. 0. 0. 0. 0. 0. 0. 0. 0. 0. 0. 0. 0. 0. 0. 0. 0. 0. 0. 0. 0. 0. 0. 0. 0. 0. 0. 0. 0. 0. 0. 0. 0. 0. 0. 0. 0. 0. 0. 0. 0. 0. 0. 0. 0. 0. 0. 0. 0. 0. 0. 0. 0. 0. 0. 0. 0. 0. 0. 0. 0. 0. 0. 0. 0. 0. 0. 0. 0. 0. 0. 0. 0. 0. 0. 0. 0. 0. 0. 0. 0. 0. 0. 0. 0. 0. 0. 0. 0. 0. 0. 0. 0. 0. 0. 0. 0. 0. 0. 0. 0. 0. 0. 0. 0. 0. 0. 0. 0. 0. 0. 0. 0. 0. 0. 0. 0. 0. 0. 0. 0. 0. 0. 0. 0. 0. 0. 0. 0. 0. 0. 0. 0. 0. 0. 0. 0. 0. 0. 0. 0. 0. 0. 0. 0. 0. 0. 0. 0. 0. 0. 0. 0. 0. 0. 0. 0. 0. 0. 0. 0. 0. 0. 0. 0. 0. 0. 0. 0. 0. 0. 0. 0. 0. 0. 0. 0. 0. 0. 0. 0. 0. 0. 0. 0. 2289. 2274. 2274. 2289. 2289. 2289. 2289. 2304. 2304. 2304. 2304. 2304. 2304. 2304. 0. 0. 0. 0. 0. 0. 2289. 2274. 2274. 2274. 2274. 2289. 2289. 2289. 0. 0. 0. 0. 0. 0. 0. 0. 0. 0. 0. 1909. 1909. 1920. 1920. 1920. 1920. 1920. 1920. 1920. 1909. 1888. 1888. 1888. 1888. 1878. 1878. 1878.
    0. 0. 0. 0. 0. 0. 0. 0. 2505. 2505. 2505. 2523. 2523. 2542. 2542. 2560. 2560. 2580. 2580. 2580. 2580. 2599. 2599. 2599. 2619. 2619. 2619. 2619. 2619. 2619. 2639. 2639. 2659. 2659. 2639. 2659. 2680. 2680. 2701. 2701. 2701. 2701. 2722. 2722. 2722. 2722. 2722. 2722. 2722. 2722. 2722. 2743. 2743. 2765. 2788. 2788. 2810. 2810. 2810. 2810. 2810. 2834. 2834. 2834. 2857. 2881. 2881. 2881. 2881. 2881. 2857. 2881. 2881. 2881. 2881. 2905. 2905. 2930. 2930. 2930. 2955. 2955. 2955. 2980. 2980. 2980. 2980. 2980. 2980. 3006. 3006. 3006. 3033. 3033. 3059. 3059. 3059. 3087. 3087. 3087. 3087. 3087. 3115. 3115. 3115. 3087. 3087. 3115. 3115. 3115. 3143. 3143. 3172. 3172. 3172. 3172. 3172. 3172. 3172. 3172. 3143. 3143. 3115. 3115. 3115. 3115. 3115. 3087. 3087. 3087. 3087. 3087. 3087. 3087. 3087. 3087. 3087. 3087. 3087. 3087. 3059. 3059. 3033. 3033. 3033. 3033. 3033. 3033. 3059. 3059. 3059. 3059. 3087. 3087. 3087. 3087. 3087. 3087. 3087. 3087. 3087. 3087. 3115. 3115. 3115. 3143. 3143. 3143. 3172. 3172. 3172. 3201. 3201. 3231. 3231. 3262. 3262. 3293. 3357. 3423. 3458. 3458. 3458. 3493. 3493. 3493. 3528. 3528. 3528. 3528. 3565. 3565. 3565. 3602. 3602. 3640. 3640. 3640. 3640. 3640. 3679. 3718. 3718. 3759. 3759. 3759. 3759. 3800. 3800. 3800. 3800. 3800. 3759. 3759. 3759. 1144. 1148. 1148. 1148. 1148. 1148. 1144. 1144. 1140. 1140. 1136. 1136. 1133. 1133. 1133. 1129. 1129. 1125. 1122. 1118. 1118. 1111. 1111. 1107. 1107. 1104. 1104. 1104. 1100. 1097. 1093. 1090. 1090. 1086. 1083. 1083. 1079. 1076. 1076. 1076. 1076. 1073. 1073. 1073. 1073. 1073. 1073. 1069. 1069. 1069. 1069. 1066. 1063. 1063. 1063. 1063. 1063. 1063. 1063. 1063. 1063. 1063. 1063. 1066. 1066. 1069. 1066. 1069. 1069. 1066. 1066. 1066. 1069. 1069. 1069. 1069. 1069. 1069. 1073. 1073. 1073. 1076. 1076. 1076. 1079. 1079. 1083. 1083. 1083. 1083. 1083. 1086. 1086. 1086. 1090. 1090. 1090. 1090. 1090. 1093. 1093. 1097. 1097. 1100. 1100. 1097. 1097. 1100. 1100. 1104. 1104. 1104. 1107. 1107. 1107. 1111. 1114. 1118. 1118. 1122. 1122. 1122. 1122. 1125. 1125. 1125. 1125. 1125. 0. 0. 0. 0. 0. 0. 0. 0. 0. 0. 0. 0. 0. 0. 0. 0. 0. 0. 0. 0. 0. 0. 0. 0. 0. 0. 0. 0. 0. 0. 0. 0. 0. 0. 0. 0. 0. 0. 0. 0. 0. 0. 0. 0. 0. 0. 0. 0. 0. 0. 0. 0. 0. 0. 0. 0. 0. 0. 0. 0. 0. 0. 0. 0. 0. 0. 0. 0. 0. 0. 0. 0. 0. 0. 0. 0. 0. 0. 0. 0. 0. 0. 0. 0. 0. 0. 0. 0. 0. 0. 0. 0. 0. 0. 0. 0. 0. 0. 0. 0. 0. 0. 0. 0. 0. 0. 0. 0. 0. 0. 0. 0. 0. 0. 0. 0. 0. 0. 0. 0. 0. 0. 0. 0. 0. 0. 0. 0. 0. 0. 0. 0. 0. 0. 0. 0. 0. 0. 0. 0. 0. 0. 0. 0. 0. 0. 0. 0. 0. 0. 0. 0. 0. 0. 0. 0. 0. 0. 0. 0. 0. 0. 0. 0. 0. 0. 0. 0. 0. 0. 0. 0. 0. 0. 0. 0. 0. 0. 0. 0. 0. 0. 0. 0. 0. 0. 0. 0. 0. 0. 0. 0. 0. 0. 0. 0. 0. 0. 0. 0. 0. 0. 0. 0. 0. 0. 0. 0. 0. 0. 0. 0. 0. 0. 0. 0. 0. 0. 0. 0. 0. 0. 0. 0. 0. 0. 0. 0. 0. 0. 0. 0. 0. 0. 0. 0. 0. 0. 0. 0. 0. 0. 2274. 2274. 2289. 2289. 2289. 2304. 2304. 2304. 2304. 2304. 2289. 2304. 2289. 2289. 0. 0. 0. 0. 0. 2304. 2289. 2289. 2289. 2289. 2289. 2289. 0. 0. 0. 0. 0. 0. 0. 0. 0. 0. 0. 0. 0. 1909. 1909. 1920. 1909. 1909. 1909. 1909. 1909. 1899. 1888. 1878. 1878. 1878. 1878. 1878. 1878.
    0. 0. 0. 0. 0. 0. 0. 0. 2505. 2505. 2505. 2523. 2523. 2542. 2542. 2560. 2560. 2580. 2580. 2580. 2580. 2580. 2599. 2599. 2599. 2599. 2619. 2619. 2619. 2619. 2639. 2639. 2659. 2659. 2639. 2659. 2680. 2680. 2701. 2701. 2701. 2701. 2722. 2722. 2722. 2722. 2722. 2722. 2722. 2722. 2722. 2743. 2765. 2765. 2788. 2788. 2810. 2810. 2810. 2810. 2834. 2834. 2834. 2857. 2857. 2881. 2881. 2881. 2881. 2881. 2857. 2881. 2881. 2881. 2881. 2905. 2905. 2930. 2930. 2930. 2955. 2955. 2955. 2980. 2980. 2980. 2980. 2980. 2980. 3006. 3006. 3006. 3033. 3033. 3059. 3059. 3059. 3087. 3087. 3087. 3087. 3087. 3087. 3115. 3115. 3087. 3087. 3087. 3115. 3115. 3143. 3143. 3172. 3172. 3172. 3172. 3172. 3172. 3172. 3172. 3143. 3143. 3143. 3115. 3115. 3115. 3115. 3087. 3087. 3087. 3087. 3087. 3087. 3087. 3087. 3087. 3087. 3087. 3087. 3087. 3059. 3059. 3033. 3033. 3033. 3033. 3033. 3033. 3059. 3059. 3059. 3059. 3087. 3087. 3087. 3087. 3087. 3087. 3087. 3087. 3115. 3115. 3115. 3115. 3143. 3143. 3143. 3172. 3172. 3172. 3201. 3201. 3201. 3231. 3231. 3262. 3262. 3262. 3324. 3390. 3458. 3458. 3458. 3493. 3493. 3528. 3528. 3528. 3528. 3528. 3565. 3565. 3602. 3602. 3602. 3640. 3640. 3640. 3640. 3640. 3679. 3679. 3718. 3759. 3759. 3759. 3759. 3800. 3800. 3800. 3800. 3759. 3759. 3718. 3718. 1140. 1144. 1148. 1148. 1148. 1148. 1144. 1144. 1140. 1140. 1136. 1136. 1133. 1133. 1133. 1129. 1129. 1125. 1122. 1118. 1118. 1111. 1111. 1107. 1107. 1104. 1104. 1104. 1100. 1097. 1093. 1093. 1090. 1086. 1083. 1079. 1079. 1076. 1076. 1076. 1076. 1076. 1073. 1073. 1073. 1073. 1073. 1069. 1073. 1069. 1069. 1066. 1066. 1063. 1063. 1066. 1063. 1063. 1066. 1066. 1066. 1066. 1066. 1066. 1066. 1069. 1069. 1069. 1069. 1066. 1069. 1066. 1069. 1069. 1069. 1069. 1069. 1069. 1073. 1073. 1073. 1076. 1076. 1076. 1079. 1079. 1079. 1083. 1083. 1083. 1083. 1083. 1086. 1086. 1090. 1086. 1090. 1090. 1093. 1093. 1093. 1097. 1097. 1100. 1100. 1097. 1097. 1100. 1100. 1104. 1100. 1104. 1107. 1107. 1111. 1111. 1114. 1114. 1118. 1122. 1122. 1122. 1122. 1122. 1122. 1125. 1122. 1125. 0. 0. 0. 0. 0. 0. 0. 0. 0. 0. 0. 0. 0. 0. 0. 0. 0. 0. 0. 0. 0. 0. 0. 0. 0. 0. 0. 0. 0. 0. 0. 0. 0. 0. 0. 0. 0. 0. 0. 0. 0. 0. 0. 0. 0. 0. 0. 0. 0. 0. 0. 0. 0. 0. 0. 0. 0. 0. 0. 0. 0. 0. 0. 0. 0. 0. 0. 0. 0. 0. 0. 0. 0. 0. 0. 0. 0. 0. 0. 0. 0. 0. 0. 0. 0. 0. 0. 0. 0. 0. 0. 0. 0. 0. 0. 0. 0. 0. 0. 0. 0. 0. 0. 0. 0. 0. 0. 0. 0. 0. 0. 0. 0. 0. 0. 0. 0. 0. 0. 0. 0. 0. 0. 0. 0. 0. 0. 0. 0. 0. 0. 0. 0. 0. 0. 0. 0. 0. 0. 0. 0. 0. 0. 0. 0. 0. 0. 0. 0. 0. 0. 0. 0. 0. 0. 0. 0. 0. 0. 0. 0. 0. 0. 0. 0. 0. 0. 0. 0. 0. 0. 0. 0. 0. 0. 0. 0. 0. 0. 0. 0. 0. 0. 0. 0. 0. 0. 0. 0. 0. 0. 0. 0. 0. 0. 0. 0. 0. 0. 0. 0. 0. 0. 0. 0. 0. 0. 0. 0. 0. 0. 0. 0. 0. 0. 0. 0. 0. 0. 0. 0. 0. 0. 0. 0. 0. 0. 0. 0. 0. 0. 0. 0. 0. 0. 0. 0. 0. 0. 0. 0. 0. 2289. 2289. 2289. 2289. 2289. 2289. 2304. 2304. 2304. 2304. 2289. 2289. 2289. 2289. 2274. 0. 0. 2320. 2320. 2320. 2304. 2304. 2289. 2304. 2304. 2289. 0. 0. 0. 0. 0. 0. 0. 0. 0. 0. 0. 0. 0. 1888. 1899. 1909. 1920. 1909. 1909. 1909. 0. 1899. 1888. 1878. 1878. 1878. 1878. 1868. 1878.
    0. 0. 0. 0. 0. 0. 0. 0. 2505. 2505. 2505. 2523. 2523. 2542. 2542. 2560. 2560. 2560. 2580. 2580. 2580. 2580. 2580. 2599. 2599. 2599. 2619. 2619. 2619. 2619. 2639. 2639. 2659. 2659. 2659. 2659. 2680. 2680. 2701. 2701. 2701. 2701. 2722. 2722. 2722. 2722. 2722. 2743. 2743. 2743. 2743. 2765. 2765. 2788. 2788. 2788. 2810. 2810. 2810. 2810. 2834. 2834. 2834. 2857. 2857. 2881. 2881. 2881. 2881. 2881. 2881. 2881. 2881. 2881. 2881. 2905. 2905. 2930. 2930. 2930. 2955. 2955. 2955. 2980. 2980. 2980. 2980. 3006. 3006. 3006. 3033. 3033. 3033. 3033. 3059. 3059. 3059. 3059. 3087. 3087. 3087. 3087. 3087. 3115. 3115. 3087. 3087. 3115. 3115. 3143. 3143. 3143. 3143. 3172. 3172. 3172. 3172. 3201. 3172. 3172. 3143. 3143. 3143. 3143. 3143. 3115. 3115. 3087. 3115. 3115. 3115. 3115. 3087. 3087. 3087. 3087. 3087. 3087. 3087. 3059. 3059. 3033. 3033. 3033. 3033. 3033. 3033. 3033. 3059. 3059. 3059. 3059. 3087. 3087. 3087. 3087. 3087. 3087. 3087. 3087. 3087. 3115. 3115. 3115. 3115. 3143. 3143. 3143. 3172. 3172. 3201. 3201. 3231. 3231. 3231. 3262. 3262. 3262. 3293. 3390. 3423. 3458. 3493. 3493. 3528. 3528. 3528. 3528. 3528. 3565. 3565. 3565. 3602. 3602. 3602. 3640. 3640. 3640. 3640. 3640. 3679. 3679. 3718. 3759. 3759. 3759. 3759. 3759. 3800. 3800. 3800. 3800. 3759. 3718. 3718. 1144. 1144. 1148. 1148. 1144. 1144. 1144. 1144. 1140. 1140. 1136. 1136. 1133. 1133. 1133. 1129. 1129. 1125. 1122. 1118. 1114. 1111. 1107. 1107. 1107. 1104. 1104. 1104. 1100. 1097. 1093. 1093. 1090. 1086. 1083. 1083. 1079. 1079. 1079. 1076. 1076. 1076. 1076. 1073. 1073. 1073. 1073. 1073. 1073. 1069. 1069. 1069. 1066. 1066. 1066. 1066. 1066. 1066. 1066. 1066. 1066. 1066. 1066. 1069. 1069. 1069. 1069. 1073. 1073. 1069. 1069. 1069. 1069. 1069. 1069. 1069. 1069. 1073. 1073. 1073. 1073. 1076. 1076. 1076. 1079. 1079. 1083. 1083. 1083. 1083. 1083. 1083. 1086. 1086. 1086. 1086. 1090. 1090. 1090. 1093. 1093. 1097. 1097. 1097. 1100. 1097. 1097. 1100. 1100. 1104. 1100. 1104. 1107. 1107. 1111. 1111. 1114. 1114. 1118. 1122. 1122. 1122. 1125. 1125. 1125. 1125. 1122. 0. 0. 0. 0. 0. 0. 0. 0. 0. 0. 0. 0. 0. 0. 0. 0. 0. 0. 0. 0. 0. 0. 0. 0. 0. 0. 0. 0. 0. 0. 0. 0. 0. 0. 0. 0. 0. 0. 0. 0. 0. 0. 0. 0. 0. 0. 0. 0. 0. 0. 0. 0. 0. 0. 0. 0. 0. 0. 0. 0. 0. 0. 0. 0. 0. 0. 0. 0. 0. 0. 0. 0. 0. 0. 0. 0. 0. 0. 0. 0. 0. 0. 0. 0. 0. 0. 0. 0. 0. 0. 0. 0. 0. 0. 0. 0. 0. 0. 0. 0. 0. 0. 0. 0. 0. 0. 0. 0. 0. 0. 0. 0. 0. 0. 0. 0. 0. 0. 0. 0. 0. 0. 0. 0. 0. 0. 0. 0. 0. 0. 0. 0. 0. 0. 0. 0. 0. 0. 0. 0. 0. 0. 0. 0. 0. 0. 0. 0. 0. 0. 0. 0. 0. 0. 0. 0. 0. 0. 0. 0. 0. 0. 0. 0. 0. 0. 0. 0. 0. 0. 0. 0. 0. 0. 0. 0. 0. 0. 0. 0. 0. 0. 0. 0. 0. 0. 0. 0. 0. 0. 0. 0. 0. 0. 0. 0. 0. 0. 0. 0. 0. 0. 0. 0. 0. 0. 0. 0. 0. 0. 0. 0. 0. 0. 0. 0. 0. 0. 0. 0. 0. 0. 0. 0. 0. 0. 0. 0. 0. 0. 0. 0. 0. 0. 0. 0. 0. 0. 0. 0. 0. 2289. 2274. 2274. 2289. 2289. 2289. 2289. 2289. 2289. 2304. 2304. 2304. 2304. 2289. 2289. 2274. 2274. 0. 0. 2320. 2320. 2320. 2304. 2304. 2304. 2304. 2304. 2304. 0. 0. 0. 0. 0. 0. 0. 0. 0. 0. 0. 0. 0. 0. 1920. 1920. 1920. 1909. 1909. 0. 0. 0. 0. 0. 1878. 1878. 1868. 1868. 1868.
    0. 0. 0. 0. 0. 0. 0. 0. 2505. 2505. 2505. 2523. 2523. 2542. 2542. 2560. 2560. 2580. 2580. 2580. 2580. 2580. 2599. 2599. 2599. 2599. 2619. 2619. 2619. 2639. 2639. 2639. 2659. 2659. 2659. 2659. 2680. 2680. 2680. 2701. 2701. 2701. 2722. 2722. 2722. 2722. 2743. 2743. 2743. 2743. 2743. 2765. 2765. 2788. 2788. 2788. 2810. 2810. 2810. 2834. 2834. 2834. 2834. 2857. 2857. 2881. 2881. 2881. 2881. 2905. 2881. 2881. 2881. 2881. 2881. 2905. 2930. 2930. 2930. 2930. 2955. 2955. 2955. 2980. 2980. 2980. 2980. 3006. 3006. 3033. 3033. 3033. 3033. 3059. 3059. 3059. 3059. 3059. 3087. 3087. 3087. 3087. 3087. 3115. 3115. 3087. 3087. 3115. 3115. 3143. 3143. 3143. 3172. 3172. 3172. 3172. 3172. 3201. 3172. 3172. 3143. 3143. 3143. 3143. 3115. 3115. 3115. 3087. 3087. 3115. 3115. 3115. 3087. 3087. 3115. 3115. 3087. 3087. 3087. 3087. 3059. 3033. 3033. 3033. 3033. 3033. 3033. 3033. 3059. 3033. 3059. 3059. 3059. 3059. 3059. 3059. 3087. 3087. 3087. 3087. 3115. 3115. 3115. 3143. 3143. 3143. 3143. 3172. 3172. 3172. 3201. 3231. 3231. 3231. 3231. 3262. 3262. 3293. 3324. 3390. 3458. 3458. 3458. 3493. 3528. 3528. 3528. 3528. 3528. 3565. 3565. 3565. 3602. 3602. 3602. 3640. 3640. 3640. 3640. 3640. 3679. 3679. 3718. 3759. 3759. 3759. 3759. 3800. 3800. 3800. 3800. 3800. 3759. 3718. 3718. 1144. 1144. 1148. 1148. 1144. 1144. 1140. 1140. 1140. 1136. 1136. 1136. 1133. 1133. 1133. 1129. 1129. 1125. 1122. 1118. 1114. 1111. 1107. 1107. 1107. 1104. 1104. 1104. 1100. 1097. 1093. 1093. 1090. 1086. 1086. 1083. 1083. 1079. 1079. 1079. 1079. 1076. 1076. 1076. 1073. 1073. 1073. 1073. 1073. 1073. 1069. 1069. 1069. 1069. 1066. 1066. 1066. 1066. 1066. 1069. 1066. 1069. 1069. 1069. 1069. 1073. 1073. 1073. 1073. 1069. 1069. 1069. 1069. 1069. 1073. 1073. 1069. 1073. 1073. 1073. 1073. 1076. 1076. 1076. 1079. 1079. 1083. 1083. 1083. 1083. 1083. 1086. 1086. 1086. 1086. 1086. 1090. 1090. 1090. 1093. 1093. 1097. 1097. 1100. 1100. 1097. 1097. 1100. 1100. 1104. 1100. 1104. 1107. 1107. 1111. 1114. 1118. 0. 1118. 1122. 1122. 1125. 1125. 1125. 0. 0. 0. 0. 0. 0. 0. 0. 0. 0. 0. 0. 0. 0. 0. 0. 0. 0. 0. 0. 0. 0. 0. 0. 0. 0. 0. 0. 0. 0. 0. 0. 0. 0. 0. 0. 0. 0. 0. 0. 0. 0. 0. 0. 0. 0. 0. 0. 0. 0. 0. 0. 0. 0. 0. 0. 0. 0. 0. 0. 0. 0. 0. 0. 0. 0. 0. 0. 0. 0. 0. 0. 0. 0. 0. 0. 0. 0. 0. 0. 0. 0. 0. 0. 0. 0. 0. 0. 0. 0. 0. 0. 0. 0. 0. 0. 0. 0. 0. 0. 0. 0. 0. 0. 0. 0. 0. 0. 0. 0. 0. 0. 0. 0. 0. 0. 0. 0. 0. 0. 0. 0. 0. 0. 0. 0. 0. 0. 0. 0. 0. 0. 0. 0. 0. 0. 0. 0. 0. 0. 0. 0. 0. 0. 0. 0. 0. 0. 0. 0. 0. 0. 0. 0. 0. 0. 0. 0. 0. 0. 0. 0. 0. 0. 0. 0. 0. 0. 0. 0. 0. 0. 0. 0. 0. 0. 0. 0. 0. 0. 0. 0. 0. 0. 0. 0. 0. 0. 0. 0. 0. 0. 0. 0. 0. 0. 0. 0. 0. 0. 0. 0. 0. 0. 0. 0. 0. 0. 0. 0. 0. 0. 0. 0. 0. 0. 0. 0. 0. 0. 0. 0. 0. 0. 0. 0. 0. 0. 0. 0. 0. 0. 0. 0. 0. 0. 0. 0. 0. 0. 0. 0. 0. 2289. 2289. 2289. 2274. 2289. 2289. 2289. 2289. 2289. 2289. 2304. 2304. 2304. 2304. 2304. 2289. 2259. 2259. 2274. 2274. 2304. 2304. 2304. 2304. 2304. 2304. 2304. 2304. 2304. 0. 0. 0. 0. 0. 0. 0. 0. 0. 0. 0. 0. 0. 0. 1899. 1909. 1920. 0. 1909. 0. 0. 0. 0. 0. 0. 0. 0. 1868. 1868.
    0. 0. 0. 0. 0. 0. 0. 0. 2505. 2523. 2523. 2523. 2542. 2542. 2542. 2560. 2560. 2580. 2580. 2580. 2580. 2580. 2599. 2599. 2599. 2619. 2619. 2619. 2639. 2639. 2639. 2639. 2659. 2659. 2659. 2659. 2680. 2680. 2680. 2701. 2701. 2701. 2722. 2722. 2722. 2722. 2743. 2743. 2743. 2743. 2743. 2765. 2765. 2788. 2788. 2788. 2810. 2810. 2834. 2834. 2834. 2834. 2834. 2857. 2857. 2881. 2881. 2881. 2905. 2905. 2881. 2881. 2881. 2881. 2905. 2905. 2930. 2930. 2930. 2930. 2955. 2955. 2955. 2980. 2980. 2980. 2980. 2980. 3006. 3033. 3033. 3033. 3033. 3059. 3059. 3059. 3059. 3059. 3087. 3087. 3087. 3087. 3087. 3115. 3115. 3087. 3087. 3115. 3115. 3115. 3143. 3143. 3143. 3172. 3172. 3172. 3172. 3201. 3172. 3172. 3143. 3143. 3143. 3143. 3143. 3115. 3115. 3087. 3087. 3087. 3087. 3087. 3087. 3087. 3087. 3115. 3115. 3087. 3087. 3087. 3087. 3059. 3033. 3033. 3033. 3033. 3033. 3033. 3033. 3033. 3059. 3059. 3059. 3059. 3059. 3059. 3087. 3087. 3087. 3115. 3115. 3115. 3115. 3115. 3143. 3143. 3143. 3172. 3172. 3172. 3201. 3231. 3231. 3231. 3231. 3262. 3262. 3293. 3324. 3390. 3458. 3458. 3458. 3493. 3493. 3493. 3528. 3528. 3528. 3565. 3565. 3565. 3602. 3602. 3602. 3640. 3640. 3640. 3640. 3679. 3679. 3679. 3679. 3718. 3759. 3759. 3759. 3800. 3800. 3800. 3800. 3800. 3759. 3759. 3759. 1144. 1144. 1148. 1148. 1144. 1144. 1140. 1140. 1140. 1136. 1136. 1136. 1133. 1133. 1129. 1129. 1125. 1122. 1122. 1118. 1114. 1111. 1107. 1107. 1107. 1104. 1104. 1104. 1100. 1097. 1097. 1093. 1090. 1086. 1086. 1086. 1083. 1079. 1079. 1079. 1079. 1076. 1076. 1076. 1073. 1076. 1076. 1073. 1073. 1073. 1073. 1069. 1069. 1069. 1069. 1069. 1069. 1069. 1069. 1069. 1069. 1069. 1069. 1073. 1073. 1073. 1073. 1073. 1073. 1069. 1073. 1069. 1073. 1073. 1073. 1073. 1073. 1073. 1073. 1073. 1073. 1073. 1076. 1076. 1079. 1079. 1083. 1083. 1083. 1083. 1083. 1086. 1086. 1086. 1086. 1090. 1090. 1090. 1090. 1093. 1097. 1097. 1097. 1100. 1100. 1097. 1097. 1097. 1100. 1104. 1104. 1107. 1107. 1107. 1107. 0. 0. 0. 0. 0. 0. 0. 0. 0. 0. 0. 0. 0. 0. 0. 0. 0. 0. 0. 0. 0. 0. 0. 0. 0. 0. 0. 0. 0. 0. 0. 0. 0. 0. 0. 0. 0. 0. 0. 0. 0. 0. 0. 0. 0. 0. 0. 0. 0. 0. 0. 0. 0. 0. 0. 0. 0. 0. 0. 0. 0. 0. 0. 0. 0. 0. 0. 0. 0. 0. 0. 0. 0. 0. 0. 0. 0. 0. 0. 0. 0. 0. 0. 0. 0. 0. 0. 0. 0. 0. 0. 0. 0. 0. 0. 0. 0. 0. 0. 0. 0. 0. 0. 0. 0. 0. 0. 0. 0. 0. 0. 0. 0. 0. 0. 0. 0. 0. 0. 0. 0. 0. 0. 0. 0. 0. 0. 0. 0. 0. 0. 0. 0. 0. 0. 0. 0. 0. 0. 0. 0. 0. 0. 0. 0. 0. 0. 0. 0. 0. 0. 0. 0. 0. 0. 0. 0. 0. 0. 0. 0. 0. 0. 0. 0. 0. 0. 0. 0. 0. 0. 0. 0. 0. 0. 0. 0. 0. 0. 0. 0. 0. 0. 0. 0. 0. 0. 0. 0. 0. 0. 0. 0. 0. 0. 0. 0. 0. 0. 0. 0. 0. 0. 0. 0. 0. 0. 0. 0. 0. 0. 0. 0. 0. 0. 0. 0. 0. 0. 0. 0. 0. 0. 0. 0. 0. 0. 0. 0. 0. 0. 0. 0. 0. 0. 0. 0. 0. 0. 0. 0. 0. 0. 0. 0. 0. 0. 0. 0. 0. 0. 0. 2289. 2289. 2289. 2289. 2289. 2289. 2289. 2289. 2289. 2289. 2289. 2304. 2304. 2304. 2304. 2289. 2274. 2274. 2274. 2274. 2304. 2304. 2304. 2304. 2304. 2304. 2304. 2304. 2304. 0. 0. 0. 0. 0. 0. 0. 0. 0. 0. 0. 0. 0. 0. 0. 0. 0. 0. 0. 0. 0. 0. 0. 0. 0. 0. 0. 0. 0.
    0. 0. 0. 0. 0. 0. 0. 0. 2505. 2523. 2523. 2523. 2542. 2542. 2542. 2560. 2560. 2560. 2580. 2580. 2580. 2580. 2599. 2599. 2599. 2619. 2619. 2619. 2639. 2639. 2639. 2659. 2659. 2659. 2659. 2659. 2680. 2680. 2680. 2701. 2701. 2701. 2701. 2722. 2722. 2722. 2722. 2743. 2743. 2743. 2743. 2743. 2765. 2788. 2788. 2788. 2810. 2810. 2834. 2834. 2834. 2857. 2857. 2857. 2881. 2881. 2881. 2905. 2905. 2905. 2881. 2881. 2881. 2881. 2905. 2905. 2930. 2930. 2955. 2955. 2955. 2955. 2955. 2980. 2980. 2980. 2980. 3006. 3006. 3006. 3033. 3033. 3033. 3033. 3059. 3059. 3059. 3059. 3087. 3087. 3087. 3087. 3087. 3115. 3115. 3087. 3087. 3115. 3115. 3143. 3143. 3143. 3143. 3172. 3172. 3172. 3172. 3201. 3172. 3172. 3143. 3143. 3143. 3143. 3143. 3115. 3087. 3087. 3087. 3087. 3087. 3087. 3087. 3087. 3087. 3087. 3087. 3087. 3087. 3059. 3059. 3059. 3033. 3033. 3033. 3033. 3033. 3033. 3059. 3033. 3059. 3059. 3059. 3059. 3059. 3059. 3087. 3087. 3087. 3115. 3115. 3115. 3115. 3143. 3143. 3143. 3143. 3172. 3172. 3172. 3201. 3201. 3231. 3231. 3231. 3262. 3293. 3324. 3324. 3390. 3423. 3458. 3458. 3493. 3493. 3493. 3528. 3528. 3528. 3565. 3565. 3565. 3602. 3602. 3602. 3640. 3640. 3640. 3640. 3640. 3640. 3679. 3679. 3718. 3759. 3759. 3759. 3800. 3800. 3800. 3800. 3800. 3759. 3759. 1136. 1144. 1144. 1144. 1148. 1144. 1144. 1140. 1140. 1140. 1136. 1136. 1133. 1133. 1133. 1129. 1129. 1129. 1125. 1122. 1118. 1114. 1111. 1107. 1107. 1107. 1104. 1104. 1104. 1100. 1097. 1097. 1093. 1093. 1086. 1086. 1086. 1083. 1083. 1079. 1079. 1079. 1076. 1076. 1076. 1076. 1076. 1076. 1076. 1073. 1073. 1073. 1073. 1073. 1069. 1069. 1069. 1069. 1069. 1069. 1073. 1073. 1073. 1073. 1073. 1073. 1073. 1073. 1073. 1073. 1069. 1069. 1069. 1073. 1073. 1073. 1073. 1073. 1073. 1073. 1073. 1073. 1076. 1076. 1076. 1079. 1079. 1079. 1083. 1083. 1083. 1083. 1086. 1086. 1086. 1090. 1090. 1090. 1093. 1093. 1097. 1097. 1097. 1097. 1100. 1100. 1097. 1097. 1097. 1100. 1104. 1104. 1107. 1107. 1107. 0. 0. 0. 0. 0. 0. 0. 0. 0. 0. 0. 0. 0. 0. 0. 0. 0. 0. 0. 0. 0. 0. 0. 0. 0. 0. 0. 0. 0. 0. 0. 0. 0. 0. 0. 0. 0. 0. 0. 0. 0. 0. 0. 0. 0. 0. 0. 0. 0. 0. 0. 0. 0. 0. 0. 0. 0. 0. 0. 0. 0. 0. 0. 0. 0. 0. 0. 0. 0. 0. 0. 0. 0. 0. 0. 0. 0. 0. 0. 0. 0. 0. 0. 0. 0. 0. 0. 0. 0. 0. 0. 0. 0. 0. 0. 0. 0. 0. 0. 0. 0. 0. 0. 0. 0. 0. 0. 0. 0. 0. 0. 0. 0. 0. 0. 0. 0. 0. 0. 0. 0. 0. 0. 0. 0. 0. 0. 0. 0. 0. 0. 0. 0. 0. 0. 0. 0. 0. 0. 0. 0. 0. 0. 0. 0. 0. 0. 0. 0. 0. 0. 0. 0. 0. 0. 0. 0. 0. 0. 0. 0. 0. 0. 0. 0. 0. 0. 0. 0. 0. 0. 0. 0. 0. 0. 0. 0. 0. 0. 0. 0. 0. 0. 0. 0. 0. 0. 0. 0. 0. 0. 0. 0. 0. 0. 0. 0. 0. 0. 0. 0. 0. 0. 0. 0. 0. 0. 0. 0. 0. 0. 0. 0. 0. 0. 0. 0. 0. 0. 0. 0. 0. 0. 0. 0. 0. 0. 0. 0. 0. 0. 0. 0. 0. 0. 0. 0. 0. 0. 0. 0. 0. 0. 0. 0. 0. 0. 0. 0. 0. 0. 0. 0. 2289. 2289. 2289. 2289. 2289. 2289. 2289. 2289. 2289. 2289. 2289. 2304. 2289. 2304. 2304. 2289. 2259. 2244. 2259. 2259. 2304. 2274. 2274. 2274. 2289. 2289. 2304. 2289. 0. 0. 0. 0. 0. 0. 0. 0. 0. 0. 0. 0. 0. 0. 0. 0. 0. 0. 0. 0. 0. 0. 0. 0. 0. 0. 0. 0. 0. 0.
    0. 0. 0. 0. 0. 0. 0. 0. 2505. 2523. 2523. 2523. 2542. 2542. 2542. 2542. 2560. 2560. 2560. 2580. 2580. 2580. 2580. 2599. 2599. 2599. 2619. 2619. 2619. 2639. 2639. 2659. 2680. 2680. 2659. 2680. 2680. 2680. 2680. 2701. 2701. 2701. 2701. 2722. 2722. 2722. 2722. 2743. 2743. 2743. 2743. 2765. 2765. 2788. 2788. 2788. 2788. 2810. 2810. 2834. 2834. 2857. 2857. 2857. 2881. 2881. 2881. 2881. 2881. 2905. 2881. 2881. 2881. 2881. 2905. 2930. 2930. 2930. 2955. 2955. 2955. 2955. 2955. 2980. 2980. 2980. 2980. 3006. 3006. 3033. 3033. 3033. 3059. 3059. 3059. 3059. 3087. 3087. 3087. 3087. 3087. 3087. 3087. 3087. 3115. 3087. 3087. 3115. 3143. 3143. 3143. 3143. 3143. 3143. 3172. 3172. 3172. 3201. 3172. 3172. 3143. 3143. 3143. 3143. 3143. 3115. 3115. 3087. 3087. 3087. 3087. 3087. 3087. 3087. 3087. 3087. 3087. 3087. 3087. 3087. 3087. 3059. 3033. 3033. 3033. 3033. 3033. 3033. 3033. 3033. 3059. 3059. 3059. 3059. 3059. 3059. 3087. 3087. 3087. 3087. 3115. 3115. 3115. 3143. 3143. 3143. 3143. 3172. 3172. 3172. 3201. 3201. 3201. 3231. 3231. 3262. 3293. 3324. 3324. 3390. 3423. 3458. 3458. 3493. 3493. 3528. 3528. 3528. 3528. 3565. 3565. 3565. 3602. 3602. 3602. 3640. 3640. 3640. 3640. 3640. 3640. 3679. 3679. 3718. 3759. 3759. 3759. 3800. 3800. 3800. 3800. 3800. 3759. 3759. 1140. 1144. 1144. 1144. 1148. 1144. 1144. 1140. 1140. 1140. 1136. 1136. 1133. 1133. 1133. 1129. 1129. 1125. 1125. 1122. 1118. 1114. 1111. 1107. 1107. 1107. 1104. 1104. 1104. 1100. 1100. 1097. 1097. 1093. 1090. 1086. 1086. 1086. 1083. 1083. 1079. 1083. 1079. 1076. 1076. 1076. 1076. 1076. 1076. 1076. 1073. 1073. 1073. 1073. 1073. 1069. 1073. 1069. 1073. 1073. 1073. 1073. 1073. 1073. 1073. 1073. 1073. 1073. 1073. 1076. 1073. 1073. 1069. 1073. 1073. 1073. 1073. 1073. 1073. 1073. 1073. 1076. 1076. 1076. 1076. 1079. 1079. 1079. 1083. 1083. 1083. 1083. 1086. 1086. 1086. 1086. 1090. 1090. 1090. 1093. 1093. 1097. 1097. 1097. 1097. 1100. 1097. 1097. 1100. 1104. 1104. 1100. 0. 0. 0. 0. 0. 0. 0. 0. 0. 0. 0. 0. 0. 0. 0. 0. 0. 0. 0. 0. 0. 0. 0. 0. 0. 0. 0. 0. 0. 0. 0. 0. 0. 0. 0. 0. 0. 0. 0. 0. 0. 0. 0. 0. 0. 0. 0. 0. 0. 0. 0. 0. 0. 0. 0. 0. 0. 0. 0. 0. 0. 0. 0. 0. 0. 0. 0. 0. 0. 0. 0. 0. 0. 0. 0. 0. 0. 0. 0. 0. 0. 0. 0. 0. 0. 0. 0. 0. 0. 0. 0. 0. 0. 0. 0. 0. 0. 0. 0. 0. 0. 0. 0. 0. 0. 0. 0. 0. 0. 0. 0. 0. 0. 0. 0. 0. 0. 0. 0. 0. 0. 0. 0. 0. 0. 0. 0. 0. 0. 0. 0. 0. 0. 0. 0. 0. 0. 0. 0. 0. 0. 0. 0. 0. 0. 0. 0. 0. 0. 0. 0. 0. 0. 0. 0. 0. 0. 0. 0. 0. 0. 0. 0. 0. 0. 0. 0. 0. 0. 0. 0. 0. 0. 0. 0. 0. 0. 0. 0. 0. 0. 0. 0. 0. 0. 0. 0. 0. 0. 0. 0. 0. 0. 0. 0. 0. 0. 0. 0. 0. 0. 0. 0. 0. 0. 0. 0. 0. 0. 0. 0. 0. 0. 0. 0. 0. 0. 0. 0. 0. 0. 0. 0. 0. 0. 0. 0. 0. 0. 0. 0. 0. 0. 0. 0. 0. 0. 0. 0. 0. 0. 0. 0. 0. 0. 0. 0. 0. 0. 0. 0. 0. 0. 0. 0. 0. 2274. 2274. 2274. 2304. 2304. 2304. 2304. 2304. 2304. 2289. 2289. 2289. 2289. 2289. 2259. 2274. 2259. 2244. 2259. 2259. 2304. 2289. 2259. 2320. 2320. 2304. 2320. 2320. 0. 0. 0. 0. 0. 0. 0. 0. 0. 0. 0. 0. 0. 0. 0. 0. 0. 0. 0. 0. 0. 0. 0. 0. 0. 0. 0. 0. 0. 0.
    0. 0. 0. 0. 0. 0. 0. 0. 2505. 2505. 2505. 2523. 2523. 2542. 2542. 2542. 2560. 2560. 2560. 2580. 2580. 2580. 2599. 2599. 2599. 2619. 2619. 2639. 2639. 2639. 2659. 2659. 2680. 2680. 2659. 2680. 2680. 2701. 2701. 2701. 2701. 2701. 2722. 2722. 2722. 2722. 2743. 2743. 2743. 2743. 2765. 2765. 2765. 2788. 2788. 2788. 2788. 2810. 2810. 2810. 2834. 2834. 2834. 2857. 2881. 2881. 2881. 2881. 2881. 2905. 2881. 2881. 2881. 2881. 2905. 2905. 2930. 2930. 2955. 2955. 2955. 2955. 2955. 2980. 2980. 2980. 2980. 2980. 3006. 3006. 3033. 3033. 3033. 3059. 3059. 3059. 3087. 3087. 3087. 3087. 3087. 3087. 3087. 3087. 3115. 3087. 3087. 3115. 3115. 3143. 3143. 3143. 3143. 3143. 3143. 3172. 3172. 3172. 3172. 3172. 3143. 3143. 3143. 3143. 3115. 3115. 3087. 3087. 3087. 3087. 3115. 3087. 3087. 3087. 3087. 3087. 3087. 3087. 3087. 3059. 3087. 3059. 3033. 3033. 3033. 3033. 3033. 3033. 3033. 3033. 3059. 3059. 3059. 3059. 3059. 3059. 3087. 3087. 3087. 3115. 3115. 3115. 3115. 3143. 3143. 3143. 3143. 3172. 3172. 3172. 3201. 3201. 3201. 3231. 3231. 3262. 3293. 3293. 3324. 3390. 3423. 3458. 3458. 3458. 3493. 3493. 3493. 3493. 3528. 3565. 3565. 3602. 3602. 3602. 3602. 3640. 3640. 3640. 3640. 3640. 3640. 3679. 3679. 3718. 3759. 3759. 3759. 3800. 3800. 3800. 3800. 3800. 3759. 3759. 3800. 1144. 1144. 1144. 1144. 1144. 1144. 1144. 1140. 1140. 1136. 1136. 1133. 1133. 1133. 1129. 1129. 1129. 1125. 1122. 1118. 1118. 1114. 1111. 1107. 1107. 1104. 1104. 1104. 1100. 1100. 1097. 1097. 1093. 1090. 1086. 1086. 1086. 1086. 1083. 1083. 1083. 1079. 1079. 1076. 1076. 1076. 1079. 1076. 1076. 1073. 1073. 1073. 1073. 1073. 1073. 1073. 1073. 1073. 1073. 1073. 1073. 1073. 1073. 1073. 1073. 1073. 1073. 1073. 1076. 1073. 1073. 1073. 1073. 1073. 1073. 1073. 1073. 1076. 1073. 1076. 1076. 1076. 1076. 1076. 1079. 1079. 1079. 1083. 1083. 1083. 1086. 1086. 1086. 1086. 1090. 1090. 1090. 1090. 1093. 1093. 1097. 1097. 1097. 1097. 1100. 1097. 1097. 1100. 1104. 1104. 0. 0. 0. 0. 0. 0. 0. 0. 0. 0. 0. 0. 0. 0. 0. 0. 0. 0. 0. 0. 0. 0. 0. 0. 0. 0. 0. 0. 0. 0. 0. 0. 0. 0. 0. 0. 0. 0. 0. 0. 0. 0. 0. 0. 0. 0. 0. 0. 0. 0. 0. 0. 0. 0. 0. 0. 0. 0. 0. 0. 0. 0. 0. 0. 0. 0. 0. 0. 0. 0. 0. 0. 0. 0. 0. 0. 0. 0. 0. 0. 0. 0. 0. 0. 0. 0. 0. 0. 0. 0. 0. 0. 0. 0. 0. 0. 0. 0. 0. 0. 0. 0. 0. 0. 0. 0. 0. 0. 0. 0. 0. 0. 0. 0. 0. 0. 0. 0. 0. 0. 0. 0. 0. 0. 0. 0. 0. 0. 0. 0. 0. 0. 0. 0. 0. 0. 0. 0. 0. 0. 0. 0. 0. 0. 0. 0. 0. 0. 0. 0. 0. 0. 0. 0. 0. 0. 0. 0. 0. 0. 0. 0. 0. 0. 0. 0. 0. 0. 0. 0. 0. 0. 0. 0. 0. 0. 0. 0. 0. 0. 0. 0. 0. 0. 0. 0. 0. 0. 0. 0. 0. 0. 0. 0. 0. 0. 0. 0. 0. 0. 0. 0. 0. 0. 0. 0. 0. 0. 0. 0. 0. 0. 0. 0. 0. 0. 0. 0. 0. 0. 0. 0. 0. 0. 0. 0. 0. 0. 0. 0. 0. 0. 0. 0. 0. 0. 0. 0. 0. 0. 0. 0. 0. 0. 0. 0. 0. 0. 0. 0. 0. 0. 0. 0. 0. 0. 2289. 2289. 2289. 2274. 2289. 2304. 2304. 2304. 2304. 2304. 2289. 2289. 2320. 2289. 2289. 2289. 2289. 2274. 2259. 2259. 2274. 2289. 2289. 2335. 2335. 2335. 2320. 2335. 0. 0. 0. 0. 0. 0. 0. 0. 0. 0. 0. 0. 0. 0. 0. 0. 0. 0. 0. 0. 0. 0. 0. 0. 0. 0. 0. 0. 0. 0. 0.
    0. 0. 0. 0. 0. 0. 0. 0. 2505. 2505. 2523. 2523. 2523. 2542. 2542. 2542. 2560. 2560. 2560. 2580. 2580. 2580. 2599. 2599. 2599. 2619. 2619. 2639. 2639. 2639. 2659. 2659. 2680. 2680. 2680. 2680. 2680. 2701. 2701. 2701. 2701. 2701. 2701. 2722. 2722. 2722. 2722. 2743. 2743. 2743. 2765. 2765. 2765. 2765. 2788. 2788. 2788. 2810. 2810. 2810. 2834. 2857. 2857. 2857. 2881. 2881. 2881. 2881. 2881. 2881. 2881. 2881. 2881. 2881. 2905. 2930. 2930. 2930. 2955. 2955. 2955. 2955. 2980. 2980. 2980. 2980. 2980. 2980. 3006. 3006. 3006. 3006. 3033. 3059. 3059. 3059. 3087. 3087. 3087. 3087. 3087. 3087. 3087. 3087. 3115. 3087. 3087. 3115. 3115. 3143. 3143. 3143. 3143. 3143. 3143. 3172. 3172. 3172. 3172. 3172. 3143. 3143. 3143. 3115. 3115. 3115. 3115. 3087. 3087. 3115. 3115. 3115. 3087. 3087. 3087. 3087. 3087. 3087. 3087. 3059. 3087. 3033. 3033. 3033. 3033. 3033. 3033. 3033. 3033. 3033. 3033. 3033. 3033. 3059. 3033. 3059. 3059. 3087. 3087. 3087. 3115. 3115. 3115. 3143. 3143. 3143. 3143. 3143. 3172. 3172. 3201. 3201. 3201. 3201. 3231. 3262. 3293. 3293. 3324. 3390. 3423. 3458. 3458. 3458. 3493. 3493. 3493. 3493. 3528. 3565. 3565. 3602. 3602. 3602. 3602. 3640. 3640. 3640. 3640. 3640. 3640. 3679. 3679. 3718. 3759. 3759. 3759. 3800. 3800. 3800. 3800. 3800. 3759. 3800. 3842. 1144. 1144. 1144. 1144. 1144. 1144. 1140. 1140. 1136. 1136. 1136. 1133. 1133. 1133. 1129. 1129. 1125. 1125. 1122. 1118. 1118. 1114. 1111. 1107. 1107. 1107. 1104. 1104. 1104. 1100. 1097. 1097. 1093. 1090. 1086. 1086. 1086. 1086. 1083. 1083. 1083. 1083. 1083. 1076. 1076. 1076. 1076. 1076. 1076. 1076. 1073. 1073. 1073. 1073. 1073. 1073. 1073. 1073. 1073. 1073. 1073. 1073. 1073. 1073. 1073. 1076. 1073. 1076. 1076. 1073. 1073. 1073. 1073. 1073. 1076. 1076. 1076. 1076. 1076. 1076. 1076. 1076. 1076. 1076. 1079. 1079. 1079. 1083. 1083. 1083. 1086. 1086. 1086. 1086. 1086. 1090. 1090. 1090. 1093. 1097. 1097. 1097. 1097. 1100. 1100. 1097. 1100. 1100. 1104. 0. 0. 0. 0. 0. 0. 0. 0. 0. 0. 0. 0. 0. 0. 0. 0. 0. 0. 0. 0. 0. 0. 0. 0. 0. 0. 0. 0. 0. 0. 0. 0. 0. 0. 0. 0. 0. 0. 0. 0. 0. 0. 0. 0. 0. 0. 0. 0. 0. 0. 0. 0. 0. 0. 0. 0. 0. 0. 0. 0. 0. 0. 0. 0. 0. 0. 0. 0. 0. 0. 0. 0. 0. 0. 0. 0. 0. 0. 0. 0. 0. 0. 0. 0. 0. 0. 0. 0. 0. 0. 0. 0. 0. 0. 0. 0. 0. 0. 0. 0. 0. 0. 0. 0. 0. 0. 0. 0. 0. 0. 0. 0. 0. 0. 0. 0. 0. 0. 0. 0. 0. 0. 0. 0. 0. 0. 0. 0. 0. 0. 0. 0. 0. 0. 0. 0. 0. 0. 0. 0. 0. 0. 0. 0. 0. 0. 0. 0. 0. 0. 0. 0. 0. 0. 0. 0. 0. 0. 0. 0. 0. 0. 0. 0. 0. 0. 0. 0. 0. 0. 0. 0. 0. 0. 0. 0. 0. 0. 0. 0. 0. 0. 0. 0. 0. 0. 0. 0. 0. 0. 0. 0. 0. 0. 0. 0. 0. 0. 0. 0. 0. 0. 0. 0. 0. 0. 0. 0. 0. 0. 0. 0. 0. 0. 0. 0. 0. 0. 0. 0. 0. 0. 0. 0. 0. 0. 0. 0. 0. 0. 0. 0. 0. 0. 0. 0. 0. 0. 0. 0. 0. 0. 0. 0. 0. 0. 0. 0. 0. 0. 0. 0. 0. 0. 0. 0. 0. 2289. 2289. 2289. 2289. 2289. 2304. 2304. 2304. 2320. 2320. 2320. 2320. 2320. 2304. 2304. 2304. 2289. 2289. 2274. 2289. 2289. 2289. 2289. 0. 0. 0. 0. 0. 0. 0. 0. 0. 0. 0. 0. 0. 0. 0. 0. 0. 0. 0. 0. 0. 0. 0. 0. 0. 0. 0. 0. 0. 0. 0. 0. 0. 0. 0. 0.
    0. 0. 0. 0. 0. 0. 0. 0. 2505. 2505. 2505. 2523. 2523. 2542. 2542. 2542. 2560. 2560. 2560. 2560. 2580. 2580. 2599. 2599. 2619. 2619. 2619. 2639. 2639. 2639. 2659. 2659. 2659. 2680. 2659. 2659. 2680. 2701. 2701. 2701. 2701. 2701. 2701. 2722. 2722. 2722. 2722. 2722. 2743. 2743. 2743. 2743. 2765. 2765. 2765. 2788. 2788. 2788. 2810. 2810. 2834. 2857. 2857. 2881. 2881. 2881. 2881. 2881. 2881. 2881. 2857. 2881. 2881. 2881. 2905. 2930. 2930. 2930. 2955. 2955. 2955. 2955. 2980. 2980. 2980. 2980. 2980. 2980. 3006. 3006. 3006. 3033. 3033. 3059. 3059. 3059. 3059. 3059. 3087. 3087. 3059. 3087. 3087. 3087. 3087. 3087. 3087. 3115. 3115. 3115. 3143. 3143. 3143. 3143. 3143. 3172. 3172. 3172. 3172. 3172. 3143. 3143. 3143. 3115. 3115. 3115. 3087. 3087. 3087. 3087. 3087. 3087. 3087. 3087. 3087. 3087. 3087. 3087. 3087. 3059. 3087. 3033. 3033. 3033. 3033. 3033. 3033. 3033. 3033. 3033. 3033. 3033. 3033. 3033. 3033. 3059. 3059. 3059. 3087. 3087. 3087. 3115. 3115. 3115. 3143. 3143. 3143. 3143. 3172. 3172. 3201. 3201. 3201. 3201. 3231. 3262. 3324. 3324. 3357. 3390. 3423. 3458. 3458. 3458. 3493. 3493. 3493. 3493. 3528. 3565. 3565. 3602. 3602. 3602. 3602. 3602. 3602. 3640. 3640. 3640. 3640. 3679. 3679. 3718. 3718. 3759. 3759. 3759. 3800. 3759. 3800. 3800. 3800. 3800. 3842. 1144. 1144. 1144. 1144. 1144. 1144. 1140. 1140. 1136. 1136. 1136. 1136. 1133. 1133. 1129. 1129. 1125. 1122. 1122. 1122. 1118. 1114. 1111. 1107. 1107. 1107. 1104. 1104. 1104. 1100. 1097. 1097. 1093. 1090. 1090. 1086. 1086. 1086. 1086. 1086. 1086. 1083. 1083. 1079. 1079. 1076. 1079. 1076. 1076. 1076. 1076. 1076. 1076. 1073. 1073. 1073. 1073. 1073. 1073. 1073. 1073. 1073. 1073. 1076. 1076. 1076. 1076. 1076. 1076. 1073. 1073. 1073. 1073. 1073. 1076. 1076. 1076. 1079. 1076. 1079. 1079. 1079. 1079. 1079. 1079. 1083. 1083. 1083. 1086. 1086. 1086. 1086. 1086. 1086. 1090. 1090. 1090. 1093. 1093. 1097. 1097. 1097. 1100. 1100. 1107. 1104. 0. 0. 0. 0. 0. 0. 0. 0. 0. 0. 0. 0. 0. 0. 0. 0. 0. 0. 0. 0. 0. 0. 0. 0. 0. 0. 0. 0. 0. 0. 0. 0. 0. 0. 0. 0. 0. 0. 0. 0. 0. 0. 0. 0. 0. 0. 0. 0. 0. 0. 0. 0. 0. 0. 0. 0. 0. 0. 0. 0. 0. 0. 0. 0. 0. 0. 0. 0. 0. 0. 0. 0. 0. 0. 0. 0. 0. 0. 0. 0. 0. 0. 0. 0. 0. 0. 0. 0. 0. 0. 0. 0. 0. 0. 0. 0. 0. 0. 0. 0. 0. 0. 0. 0. 0. 0. 0. 0. 0. 0. 0. 0. 0. 0. 0. 0. 0. 0. 0. 0. 0. 0. 0. 0. 0. 0. 0. 0. 0. 0. 0. 0. 0. 0. 0. 0. 0. 0. 0. 0. 0. 0. 0. 0. 0. 0. 0. 0. 0. 0. 0. 0. 0. 0. 0. 0. 0. 0. 0. 0. 0. 0. 0. 0. 0. 0. 0. 0. 0. 0. 0. 0. 0. 0. 0. 0. 0. 0. 0. 0. 0. 0. 0. 0. 0. 0. 0. 0. 0. 0. 0. 0. 0. 0. 0. 0. 0. 0. 0. 0. 0. 0. 0. 0. 0. 0. 0. 0. 0. 0. 0. 0. 0. 0. 0. 0. 0. 0. 0. 0. 0. 0. 0. 0. 0. 0. 0. 0. 0. 0. 0. 0. 0. 0. 0. 0. 0. 0. 0. 0. 0. 0. 0. 0. 0. 0. 0. 0. 0. 0. 0. 0. 0. 0. 0. 0. 0. 0. 0. 2304. 2289. 2304. 2304. 2289. 2289. 2304. 2320. 2320. 2320. 2320. 2320. 2320. 2304. 2289. 2304. 2304. 2289. 2289. 2289. 2289. 2289. 2289. 2289. 0. 0. 0. 0. 0. 0. 0. 0. 0. 0. 0. 0. 0. 0. 0. 0. 0. 0. 0. 0. 0. 0. 0. 0. 0. 0. 0. 0. 0. 0. 0. 0. 0. 0. 0. 0.
    0. 0. 0. 0. 0. 0. 0. 0. 2505. 2505. 2505. 2523. 2523. 2542. 2542. 2542. 2560. 2560. 2560. 2580. 2580. 2580. 2599. 2599. 2619. 2619. 2619. 2639. 2639. 2639. 2659. 2659. 2680. 2680. 2680. 2659. 2680. 2701. 2701. 2701. 2701. 2701. 2701. 2722. 2722. 2722. 2722. 2722. 2743. 2743. 2743. 2743. 2765. 2765. 2788. 2788. 2788. 2810. 2810. 2810. 2834. 2857. 2857. 2881. 2881. 2881. 2881. 2881. 2881. 2881. 2857. 2881. 2881. 2905. 2905. 2930. 2930. 2930. 2955. 2955. 2955. 2955. 2955. 2980. 2980. 2980. 2980. 2980. 3006. 3006. 3006. 3033. 3033. 3059. 3059. 3059. 3059. 3059. 3087. 3087. 3087. 3087. 3087. 3087. 3115. 3115. 3115. 3115. 3115. 3115. 3143. 3143. 3143. 3143. 3143. 3172. 3172. 3172. 3172. 3172. 3172. 3143. 3143. 3115. 3087. 3087. 3087. 3059. 3087. 3087. 3087. 3087. 3087. 3087. 3087. 3087. 3087. 3059. 3059. 3059. 3059. 3033. 3033. 3033. 3033. 3033. 3033. 3033. 3033. 3033. 3033. 3033. 3033. 3033. 3059. 3059. 3059. 3059. 3087. 3087. 3115. 3115. 3115. 3115. 3143. 3143. 3143. 3143. 3172. 3172. 3172. 3201. 3201. 3201. 3231. 3262. 3324. 3293. 3324. 3390. 3423. 3423. 3458. 3458. 3458. 3493. 3493. 3493. 3528. 3565. 3565. 3602. 3602. 3602. 3602. 3602. 3602. 3640. 3640. 3640. 3640. 3679. 3679. 3718. 3759. 3759. 3759. 3800. 3800. 3800. 3800. 3800. 3800. 3800. 3842. 1144. 1144. 1140. 1144. 1144. 1140. 1140. 1140. 1136. 1136. 1136. 1133. 1133. 1133. 1129. 1129. 1125. 1122. 1122. 1122. 1118. 1118. 1114. 1111. 1107. 1107. 1107. 1104. 1104. 1104. 1100. 1097. 1097. 1090. 1090. 1090. 1086. 1086. 1086. 1086. 1086. 1086. 1083. 1079. 1079. 1079. 1079. 1079. 1076. 1076. 1076. 1076. 1076. 1073. 1073. 1076. 1076. 1076. 1076. 1076. 1076. 1076. 1076. 1076. 1076. 1076. 1076. 1076. 1076. 1073. 1073. 1073. 1073. 1073. 1076. 1079. 1079. 1079. 1079. 1079. 1079. 1079. 1079. 1079. 1083. 1083. 1083. 1083. 1086. 1086. 1086. 1086. 1086. 1086. 1090. 1090. 1090. 1093. 1093. 1097. 1097. 1100. 0. 0. 0. 0. 0. 0. 0. 0. 0. 0. 0. 0. 0. 0. 0. 0. 0. 0. 0. 0. 0. 0. 0. 0. 0. 0. 0. 0. 0. 0. 0. 0. 0. 0. 0. 0. 0. 0. 0. 0. 0. 0. 0. 0. 0. 0. 0. 0. 0. 0. 0. 0. 0. 0. 0. 0. 0. 0. 0. 0. 0. 0. 0. 0. 0. 0. 0. 0. 0. 0. 0. 0. 0. 0. 0. 0. 0. 0. 0. 0. 0. 0. 0. 0. 0. 0. 0. 0. 0. 0. 0. 0. 0. 0. 0. 0. 0. 0. 0. 0. 0. 0. 0. 0. 0. 0. 0. 0. 0. 0. 0. 0. 0. 0. 0. 0. 0. 0. 0. 0. 0. 0. 0. 0. 0. 0. 0. 0. 0. 0. 0. 0. 0. 0. 0. 0. 0. 0. 0. 0. 0. 0. 0. 0. 0. 0. 0. 0. 0. 0. 0. 0. 0. 0. 0. 0. 0. 0. 0. 0. 0. 0. 0. 0. 0. 0. 0. 0. 0. 0. 0. 0. 0. 0. 0. 0. 0. 0. 0. 0. 0. 0. 0. 0. 0. 0. 0. 0. 0. 0. 0. 0. 0. 0. 0. 0. 0. 0. 0. 0. 0. 0. 0. 0. 0. 0. 0. 0. 0. 0. 0. 0. 0. 0. 0. 0. 0. 0. 0. 0. 0. 0. 0. 0. 0. 0. 0. 0. 0. 0. 0. 0. 0. 0. 0. 0. 0. 0. 0. 0. 0. 0. 0. 0. 0. 0. 0. 0. 0. 0. 0. 0. 0. 0. 0. 0. 0. 0. 0. 0. 0. 0. 0. 0. 2304. 2304. 2304. 2289. 2289. 2304. 2304. 2304. 2320. 2320. 2320. 2320. 2320. 2304. 2304. 2289. 2289. 2289. 2289. 2289. 2289. 2289. 2304. 0. 0. 0. 0. 0. 0. 0. 0. 0. 0. 0. 0. 0. 0. 0. 0. 0. 0. 0. 0. 0. 0. 0. 0. 0. 0. 0. 0. 0. 0. 0. 0. 0. 0. 0. 0.
    0. 0. 0. 0. 0. 0. 0. 0. 2505. 2505. 2505. 2523. 2523. 2542. 2542. 2560. 2560. 2560. 2560. 2580. 2580. 2599. 2599. 2599. 2599. 2619. 2619. 2639. 2639. 2639. 2639. 2659. 2659. 2680. 2659. 2659. 2680. 2701. 2701. 2701. 2701. 2701. 2701. 2722. 2722. 2722. 2722. 2722. 2743. 2743. 2743. 2743. 2765. 2765. 2788. 2788. 2788. 2788. 2810. 2810. 2810. 2834. 2857. 2857. 2881. 2881. 2881. 2881. 2881. 2881. 2857. 2881. 2881. 2881. 2905. 2905. 2930. 2930. 2930. 2955. 2955. 2955. 2955. 2980. 2980. 2980. 2980. 2980. 3006. 3006. 3006. 3033. 3033. 3059. 3059. 3059. 3059. 3059. 3087. 3087. 3087. 3087. 3087. 3087. 3115. 3115. 3115. 3115. 3143. 3143. 3143. 3143. 3143. 3143. 3143. 3172. 3172. 3172. 3172. 3172. 3143. 3172. 3143. 3115. 3115. 3087. 3087. 3087. 3087. 3087. 3087. 3087. 3059. 3087. 3087. 3059. 3059. 3059. 3059. 3059. 3059. 3033. 3033. 3033. 3033. 3033. 3033. 3033. 3033. 3033. 3033. 3033. 3033. 3033. 3059. 3059. 3059. 3059. 3087. 3087. 3115. 3115. 3115. 3115. 3143. 3143. 3143. 3143. 3172. 3172. 3172. 3172. 3201. 3201. 3231. 3231. 3262. 3262. 3293. 3357. 3390. 3423. 3458. 3458. 3458. 3493. 3493. 3493. 3528. 3565. 3565. 3602. 3602. 3602. 3602. 3602. 3602. 3640. 3640. 3640. 3640. 3679. 3679. 3718. 3759. 3759. 3759. 3800. 3800. 3800. 3800. 3842. 3800. 3800. 1144. 1144. 1144. 1140. 1144. 1144. 1140. 1140. 1140. 1136. 1136. 1136. 1133. 1133. 1133. 1129. 1125. 1125. 1122. 1122. 1122. 1118. 1118. 1114. 1111. 1111. 1107. 1107. 1107. 1104. 1104. 1100. 1097. 1097. 1090. 1090. 1090. 1086. 1086. 1086. 1086. 1086. 1083. 1083. 1079. 1079. 1079. 1079. 1079. 1076. 1076. 1076. 1076. 1076. 1076. 1076. 1076. 1076. 1076. 1076. 1076. 1076. 1076. 1076. 1076. 1076. 1076. 1076. 1076. 1076. 1073. 1073. 1073. 1073. 1076. 1076. 1079. 1079. 1079. 1079. 1083. 1083. 1083. 1083. 1079. 1083. 1083. 1083. 1083. 1083. 1083. 1086. 1086. 1086. 1086. 1090. 1090. 1086. 0. 0. 0. 0. 0. 0. 0. 0. 0. 0. 0. 0. 0. 0. 0. 0. 0. 0. 0. 0. 0. 0. 0. 0. 0. 0. 0. 0. 0. 0. 0. 0. 0. 0. 0. 0. 0. 0. 0. 0. 0. 0. 0. 0. 0. 0. 0. 0. 0. 0. 0. 0. 0. 0. 0. 0. 0. 0. 0. 0. 0. 0. 0. 0. 0. 0. 0. 0. 0. 0. 0. 0. 0. 0. 0. 0. 0. 0. 0. 0. 0. 0. 0. 0. 0. 0. 0. 0. 0. 0. 0. 0. 0. 0. 0. 0. 0. 0. 0. 0. 0. 0. 0. 0. 0. 0. 0. 0. 0. 0. 0. 0. 0. 0. 0. 0. 0. 0. 0. 0. 0. 0. 0. 0. 0. 0. 0. 0. 0. 0. 0. 0. 0. 0. 0. 0. 0. 0. 0. 0. 0. 0. 0. 0. 0. 0. 0. 0. 0. 0. 0. 0. 0. 0. 0. 0. 0. 0. 0. 0. 0. 0. 0. 0. 0. 0. 0. 0. 0. 0. 0. 0. 0. 0. 0. 0. 0. 0. 0. 0. 0. 0. 0. 0. 0. 0. 0. 0. 0. 0. 0. 0. 0. 0. 0. 0. 0. 0. 0. 0. 0. 0. 0. 0. 0. 0. 0. 0. 0. 0. 0. 0. 0. 0. 0. 0. 0. 0. 0. 0. 0. 0. 0. 0. 0. 0. 0. 0. 0. 0. 0. 0. 0. 0. 0. 0. 0. 0. 0. 0. 0. 0. 0. 0. 0. 0. 0. 0. 0. 0. 0. 0. 0. 0. 0. 0. 0. 0. 0. 0. 0. 0. 0. 0. 0. 0. 0. 0. 2304. 2304. 2304. 2289. 2289. 2289. 2304. 2304. 2304. 2304. 2304. 2320. 2304. 2304. 2289. 2289. 2289. 2289. 2289. 2289. 2304. 2304. 2304. 2320. 0. 0. 0. 0. 0. 0. 0. 0. 0. 0. 0. 0. 0. 0. 0. 0. 0. 0. 0. 0. 0. 0. 0. 0. 0. 0. 0. 0. 0. 0. 0. 0. 0. 0. 0. 0.
    0. 0. 0. 0. 0. 0. 0. 0. 2505. 2505. 2505. 2505. 2523. 2523. 2542. 2542. 2560. 2560. 2580. 2560. 2580. 2580. 2599. 2599. 2599. 2619. 2619. 2639. 2639. 2639. 2639. 2659. 2659. 2680. 2680. 2659. 2680. 2680. 2680. 2701. 2701. 2701. 2701. 2722. 2722. 2722. 2722. 2722. 2743. 2743. 2743. 2743. 2765. 2765. 2788. 2788. 2788. 2788. 2788. 2810. 2810. 2834. 2857. 2857. 2881. 2881. 2881. 2881. 2881. 2881. 2857. 2881. 2881. 2881. 2905. 2905. 2930. 2930. 2930. 2930. 2955. 2955. 2955. 2980. 2980. 2980. 2980. 2980. 3006. 3006. 3033. 3033. 3059. 3059. 3059. 3059. 3087. 3087. 3087. 3087. 3087. 3087. 3087. 3087. 3115. 3087. 3115. 3115. 3143. 3143. 3143. 3143. 3143. 3143. 3143. 3172. 3172. 3172. 3172. 3172. 3172. 3172. 3143. 3115. 3087. 3087. 3087. 3087. 3087. 3087. 3087. 3087. 3087. 3087. 3087. 3059. 3059. 3059. 3059. 3059. 3059. 3033. 3033. 3033. 3033. 3033. 3033. 3033. 3033. 3059. 3033. 3033. 3033. 3033. 3059. 3059. 3059. 3059. 3087. 3087. 3087. 3115. 3115. 3115. 3143. 3143. 3143. 3143. 3172. 3172. 3172. 3172. 3201. 3201. 3201. 3231. 3262. 3231. 3293. 3357. 3390. 3423. 3458. 3458. 3458. 3493. 3493. 3493. 3528. 3528. 3565. 3565. 3602. 3602. 3602. 3602. 3602. 3640. 3640. 3640. 3640. 3679. 3718. 3718. 3759. 3759. 3759. 3800. 3800. 3800. 3800. 3842. 3800. 3842. 3842. 1148. 1140. 1140. 1144. 1140. 1140. 1136. 1136. 1136. 1136. 1136. 1133. 1133. 1133. 1129. 1129. 1125. 1122. 1122. 1122. 1122. 1118. 1114. 1114. 1111. 1107. 1107. 1107. 1104. 1104. 1100. 1100. 1097. 1093. 1090. 1090. 1090. 1086. 1086. 1086. 1086. 1086. 1083. 1083. 1079. 1079. 1079. 1079. 1076. 1076. 1076. 1076. 1076. 1076. 1076. 1076. 1076. 1076. 1076. 1076. 1076. 1076. 1076. 1076. 1076. 1076. 1076. 1076. 1076. 1073. 1073. 1073. 1076. 1076. 1079. 1079. 1079. 1083. 1083. 1083. 1083. 1083. 1083. 1083. 1083. 1083. 1083. 1083. 1086. 1086. 1086. 1086. 1086. 0. 0. 0. 0. 0. 0. 0. 0. 0. 0. 0. 0. 0. 0. 0. 0. 0. 0. 0. 0. 0. 0. 0. 0. 0. 0. 0. 0. 0. 0. 0. 0. 0. 0. 0. 0. 0. 0. 0. 0. 0. 0. 0. 0. 0. 0. 0. 0. 0. 0. 0. 0. 0. 0. 0. 0. 0. 0. 0. 0. 0. 0. 0. 0. 0. 0. 0. 0. 0. 0. 0. 0. 0. 0. 0. 0. 0. 0. 0. 0. 0. 0. 0. 0. 0. 0. 0. 0. 0. 0. 0. 0. 0. 0. 0. 0. 0. 0. 0. 0. 0. 0. 0. 0. 0. 0. 0. 0. 0. 0. 0. 0. 0. 0. 0. 0. 0. 0. 0. 0. 0. 0. 0. 0. 0. 0. 0. 0. 0. 0. 0. 0. 0. 0. 0. 0. 0. 0. 0. 0. 0. 0. 0. 0. 0. 0. 0. 0. 0. 0. 0. 0. 0. 0. 0. 0. 0. 0. 0. 0. 0. 0. 0. 0. 0. 0. 0. 0. 0. 0. 0. 0. 0. 0. 0. 0. 0. 0. 0. 0. 0. 0. 0. 0. 0. 0. 0. 0. 0. 0. 0. 0. 0. 0. 0. 0. 0. 0. 0. 0. 0. 0. 0. 0. 0. 0. 0. 0. 0. 0. 0. 0. 0. 0. 0. 0. 0. 0. 0. 0. 0. 0. 0. 0. 0. 0. 0. 0. 0. 0. 0. 0. 0. 0. 0. 0. 0. 0. 0. 0. 0. 0. 0. 0. 0. 0. 0. 0. 0. 0. 0. 0. 0. 0. 0. 0. 0. 0. 0. 0. 0. 0. 0. 0. 0. 0. 0. 0. 0. 0. 0. 0. 0. 2304. 2304. 2304. 2289. 2289. 2304. 2304. 2304. 2304. 2274. 2274. 2320. 2320. 2304. 2304. 2289. 2304. 2304. 2304. 2304. 2304. 2304. 2320. 0. 0. 0. 0. 0. 0. 0. 0. 0. 0. 0. 0. 0. 0. 0. 0. 0. 0. 0. 0. 0. 0. 0. 0. 0. 0. 0. 0. 0. 0. 0. 0. 0. 0. 0. 0.
    0. 0. 0. 0. 0. 0. 0. 0. 2505. 2505. 2505. 2523. 2523. 2542. 2542. 2542. 2560. 2560. 2580. 2560. 2580. 2580. 2580. 2599. 2599. 2619. 2619. 2619. 2639. 2639. 2639. 2659. 2659. 2680. 2659. 2680. 2680. 2680. 2701. 2701. 2701. 2701. 2701. 2722. 2701. 2722. 2722. 2722. 2743. 2743. 2743. 2743. 2765. 2765. 2788. 2788. 2788. 2788. 2788. 2810. 2810. 2834. 2834. 2857. 2881. 2881. 2881. 2881. 2881. 2881. 2857. 2881. 2881. 2881. 2905. 2905. 2930. 2905. 2930. 2930. 2955. 2955. 2955. 2980. 2980. 2980. 2980. 2980. 3006. 3006. 3033. 3033. 3059. 3059. 3059. 3059. 3059. 3059. 3087. 3087. 3087. 3087. 3087. 3087. 3115. 3115. 3115. 3115. 3143. 3143. 3143. 3143. 3143. 3143. 3172. 3172. 3172. 3172. 3172. 3172. 3172. 3172. 3143. 3115. 3087. 3087. 3087. 3087. 3087. 3087. 3087. 3087. 3087. 3087. 3087. 3087. 3087. 3087. 3059. 3059. 3059. 3033. 3033. 3033. 3033. 3033. 3033. 3033. 3033. 3033. 3033. 3033. 3033. 3033. 3059. 3059. 3059. 3059. 3087. 3087. 3087. 3115. 3115. 3115. 3115. 3143. 3143. 3143. 3143. 3172. 3172. 3172. 3201. 3201. 3201. 3231. 3262. 3231. 3262. 3324. 3390. 3423. 3458. 3458. 3458. 3493. 3493. 3493. 3528. 3528. 3565. 3565. 3602. 3602. 3602. 3602. 3602. 3640. 3640. 3640. 3640. 3679. 3718. 3718. 3759. 3759. 3759. 3800. 3800. 3800. 3842. 3842. 3800. 3842. 3842. 3885. 1140. 1140. 1140. 1140. 1140. 1136. 1136. 1136. 1136. 1136. 1133. 1133. 1133. 1133. 1129. 1125. 1125. 1122. 1122. 1122. 1118. 1114. 1114. 1111. 1107. 1107. 1107. 1104. 1104. 1100. 1100. 1100. 1093. 1093. 1090. 1090. 1090. 1086. 1086. 1086. 1086. 1086. 1083. 1083. 1079. 1079. 1079. 1076. 1076. 1076. 1076. 1076. 1076. 1076. 1076. 1076. 1076. 1076. 1076. 1076. 1076. 1076. 1076. 1076. 1079. 1076. 1076. 1076. 1076. 1073. 1073. 1076. 1076. 1079. 1079. 1079. 1083. 1083. 1083. 1083. 1083. 1083. 1083. 1083. 1083. 1083. 1083. 1086. 1086. 1090. 0. 0. 0. 0. 0. 0. 0. 0. 0. 0. 0. 0. 0. 0. 0. 0. 0. 0. 0. 0. 0. 0. 0. 0. 0. 0. 0. 0. 0. 0. 0. 0. 0. 0. 0. 0. 0. 0. 0. 0. 0. 0. 0. 0. 0. 0. 0. 0. 0. 0. 0. 0. 0. 0. 0. 0. 0. 0. 0. 0. 0. 0. 0. 0. 0. 0. 0. 0. 0. 0. 0. 0. 0. 0. 0. 0. 0. 0. 0. 0. 0. 0. 0. 0. 0. 0. 0. 0. 0. 0. 0. 0. 0. 0. 0. 0. 0. 0. 0. 0. 0. 0. 0. 0. 0. 0. 0. 0. 0. 0. 0. 0. 0. 0. 0. 0. 0. 0. 0. 0. 0. 0. 0. 0. 0. 0. 0. 0. 0. 0. 0. 0. 0. 0. 0. 0. 0. 0. 0. 0. 0. 0. 0. 0. 0. 0. 0. 0. 0. 0. 0. 0. 0. 0. 0. 0. 0. 0. 0. 0. 0. 0. 0. 0. 0. 0. 0. 0. 0. 0. 0. 0. 0. 0. 0. 0. 0. 0. 0. 0. 0. 0. 0. 0. 0. 0. 0. 0. 0. 0. 0. 0. 0. 0. 0. 0. 0. 0. 0. 0. 0. 0. 0. 0. 0. 0. 0. 0. 0. 0. 0. 0. 0. 0. 0. 0. 0. 0. 0. 0. 0. 0. 0. 0. 0. 0. 0. 0. 0. 0. 0. 0. 0. 0. 0. 0. 0. 0. 0. 0. 0. 0. 0. 0. 0. 0. 0. 0. 0. 0. 0. 0. 0. 0. 0. 0. 0. 0. 0. 0. 0. 0. 0. 0. 0. 0. 0. 0. 0. 0. 0. 0. 0. 0. 2304. 2304. 2304. 2304. 2304. 2289. 2304. 2304. 2304. 2304. 2320. 2304. 2320. 2320. 2304. 2304. 2289. 2304. 0. 0. 2304. 2304. 2304. 0. 0. 0. 0. 0. 0. 0. 0. 0. 0. 0. 0. 0. 0. 0. 0. 0. 0. 0. 0. 0. 0. 0. 0. 0. 0. 0. 0. 0. 0. 0. 0. 0. 0. 0. 0. 0.
    0. 0. 0. 0. 0. 0. 0. 0. 2505. 2505. 2505. 2523. 2542. 2542. 2560. 2560. 2560. 2560. 2580. 2580. 2580. 2580. 2580. 2599. 2599. 2619. 2619. 2639. 2639. 2639. 2639. 2659. 2659. 2680. 2680. 2680. 2680. 2701. 2701. 2701. 2701. 2701. 2701. 2722. 2701. 2722. 2722. 2722. 2743. 2743. 2743. 2743. 2765. 2765. 2765. 2788. 2788. 2788. 2788. 2810. 2810. 2834. 2834. 2857. 2857. 2881. 2881. 2881. 2881. 2881. 2857. 2881. 2881. 2881. 2905. 2905. 2930. 2930. 2930. 2930. 2955. 2955. 2955. 2980. 2980. 2980. 2980. 2980. 3006. 3006. 3006. 3033. 3033. 3059. 3059. 3059. 3059. 3059. 3087. 3087. 3087. 3087. 3087. 3087. 3115. 3115. 3115. 3115. 3115. 3143. 3143. 3143. 3143. 3143. 3172. 3201. 3201. 3172. 3172. 3172. 3143. 3172. 3143. 3115. 3115. 3087. 3087. 3087. 3087. 3087. 3087. 3087. 3087. 3087. 3087. 3087. 3059. 3059. 3059. 3059. 3059. 3033. 3033. 3033. 3033. 3033. 3033. 3033. 3033. 3033. 3033. 3033. 3033. 3033. 3059. 3059. 3059. 3087. 3087. 3087. 3115. 3115. 3115. 3115. 3115. 3143. 3143. 3143. 3143. 3172. 3172. 3172. 3201. 3201. 3201. 3231. 3262. 3231. 3262. 3324. 3390. 3423. 3423. 3458. 3458. 3458. 3493. 3493. 3493. 3528. 3565. 3565. 3565. 3565. 3602. 3602. 3602. 3640. 3640. 3640. 3640. 3679. 3679. 3718. 3759. 3759. 3759. 3759. 3800. 3800. 3800. 3800. 3800. 3800. 3842. 3842. 3842. 1140. 1144. 1140. 1140. 1136. 1136. 1136. 1136. 1136. 1136. 1133. 1133. 1133. 1129. 1125. 1125. 1122. 1122. 1122. 1118. 1118. 1114. 1111. 1111. 1107. 1107. 1107. 1104. 1104. 1100. 1100. 1097. 1093. 1090. 1090. 1090. 1086. 1086. 1086. 1086. 1086. 1083. 1083. 1083. 1083. 1079. 1079. 1079. 1076. 1079. 1076. 1079. 1076. 1079. 1079. 1079. 1079. 1076. 1076. 1076. 1079. 1079. 1079. 1079. 1076. 1079. 1079. 1076. 1073. 1076. 1079. 1079. 1079. 1083. 1079. 1079. 1079. 1083. 1083. 1083. 1083. 1083. 1083. 1083. 1083. 1086. 1090. 1086. 0. 0. 0. 0. 0. 0. 0. 0. 0. 0. 0. 0. 0. 0. 0. 0. 0. 0. 0. 0. 0. 0. 0. 0. 0. 0. 0. 0. 0. 0. 0. 0. 0. 0. 0. 0. 0. 0. 0. 0. 0. 0. 0. 0. 0. 0. 0. 0. 0. 0. 0. 0. 0. 0. 0. 0. 0. 0. 0. 0. 0. 0. 0. 0. 0. 0. 0. 0. 0. 0. 0. 0. 0. 0. 0. 0. 0. 0. 0. 0. 0. 0. 0. 0. 0. 0. 0. 0. 0. 0. 0. 0. 0. 0. 0. 0. 0. 0. 0. 0. 0. 0. 0. 0. 0. 0. 0. 0. 0. 0. 0. 0. 0. 0. 0. 0. 0. 0. 0. 0. 0. 0. 0. 0. 0. 0. 0. 0. 0. 0. 0. 0. 0. 0. 0. 0. 0. 0. 0. 0. 0. 0. 0. 0. 0. 0. 0. 0. 0. 0. 0. 0. 0. 0. 0. 0. 0. 0. 0. 0. 0. 0. 0. 0. 0. 0. 0. 0. 0. 0. 0. 0. 0. 0. 0. 0. 0. 0. 0. 0. 0. 0. 0. 0. 0. 0. 0. 0. 0. 0. 0. 0. 0. 0. 0. 0. 0. 0. 0. 0. 0. 0. 0. 0. 0. 0. 0. 0. 0. 0. 0. 0. 0. 0. 0. 0. 0. 0. 0. 0. 0. 0. 0. 0. 0. 0. 0. 0. 0. 0. 0. 0. 0. 0. 0. 0. 0. 0. 0. 0. 0. 0. 0. 0. 0. 0. 0. 0. 0. 0. 0. 0. 0. 0. 0. 0. 0. 0. 0. 0. 0. 0. 0. 0. 0. 0. 0. 0. 0. 0. 0. 0. 0. 0. 0. 2304. 2304. 2304. 2304. 2304. 2289. 2304. 2304. 2304. 2304. 2320. 2320. 2320. 2320. 0. 0. 0. 0. 0. 0. 2320. 2320. 2304. 2304. 0. 0. 0. 0. 0. 0. 0. 0. 0. 0. 0. 0. 0. 0. 0. 0. 0. 0. 0. 0. 0. 0. 0. 0. 0. 0. 0. 0. 0. 0. 0. 0. 0. 0. 0. 0.
    0. 0. 0. 0. 0. 0. 0. 0. 2505. 2505. 2523. 2542. 2542. 2542. 2542. 2560. 2560. 2560. 2580. 2580. 2580. 2580. 2599. 2599. 2599. 2619. 2619. 2619. 2639. 2639. 2639. 2659. 2659. 2680. 2680. 2680. 2680. 2701. 2701. 2701. 2701. 2701. 2701. 2722. 2701. 2722. 2722. 2722. 2722. 2743. 2743. 2743. 2765. 2765. 2765. 2788. 2788. 2788. 2788. 2810. 2834. 2834. 2834. 2857. 2857. 2881. 2881. 2881. 2881. 2881. 2857. 2881. 2881. 2881. 2905. 2905. 2930. 2930. 2930. 2930. 2955. 2955. 2955. 2955. 2980. 2980. 2980. 2980. 3006. 3006. 3006. 3033. 3033. 3059. 3059. 3059. 3059. 3059. 3059. 3059. 3059. 3087. 3087. 3087. 3115. 3115. 3115. 3115. 3143. 3143. 3143. 3143. 3172. 3172. 3172. 3201. 3201. 3201. 3172. 3172. 3143. 3143. 3143. 3115. 3115. 3087. 3087. 3087. 3087. 3087. 3087. 3059. 3059. 3087. 3087. 3087. 3059. 3059. 3059. 3059. 3059. 3033. 3033. 3033. 3033. 3033. 3033. 3033. 3033. 3033. 3033. 3033. 3033. 3033. 3059. 3059. 3087. 3087. 3087. 3087. 3115. 3115. 3115. 3115. 3115. 3115. 3115. 3143. 3143. 3172. 3172. 3172. 3201. 3201. 3201. 3231. 3262. 3231. 3262. 3357. 3423. 3423. 3458. 3458. 3458. 3458. 3493. 3493. 3493. 3528. 3565. 3565. 3565. 3602. 3602. 3602. 3640. 3640. 3640. 3640. 3679. 3679. 3718. 3718. 3759. 3759. 3759. 3800. 3800. 3800. 3800. 3842. 3800. 3800. 3842. 3885. 3885. 3842. 1140. 1140. 1140. 1136. 1136. 1136. 1136. 1136. 1136. 1133. 1133. 1133. 1129. 1125. 1125. 1122. 1122. 1122. 1118. 1118. 1111. 1111. 1107. 1107. 1107. 1107. 1104. 1104. 1100. 1100. 1097. 1093. 1093. 1090. 1090. 1086. 1086. 1086. 1086. 1086. 1086. 1083. 1083. 1083. 1083. 1079. 1079. 1079. 1079. 1079. 1079. 1079. 1079. 1079. 1079. 1083. 1079. 1079. 1079. 1079. 1079. 1079. 1079. 1079. 1079. 1079. 1076. 1073. 1073. 1079. 1079. 1079. 1083. 1083. 1079. 1079. 1083. 1083. 1083. 1083. 1083. 1086. 1086. 0. 0. 0. 0. 0. 0. 0. 0. 0. 0. 0. 0. 0. 0. 0. 0. 0. 0. 0. 0. 0. 0. 0. 0. 0. 0. 0. 0. 0. 0. 0. 0. 0. 0. 0. 0. 0. 0. 0. 0. 0. 0. 0. 0. 0. 0. 0. 0. 0. 0. 0. 0. 0. 0. 0. 0. 0. 0. 0. 0. 0. 0. 0. 0. 0. 0. 0. 0. 0. 0. 0. 0. 0. 0. 0. 0. 0. 0. 0. 0. 0. 0. 0. 0. 0. 0. 0. 0. 0. 0. 0. 0. 0. 0. 0. 0. 0. 0. 0. 0. 0. 0. 0. 0. 0. 0. 0. 0. 0. 0. 0. 0. 0. 0. 0. 0. 0. 0. 0. 0. 0. 0. 0. 0. 0. 0. 0. 0. 0. 0. 0. 0. 0. 0. 0. 0. 0. 0. 0. 0. 0. 0. 0. 0. 0. 0. 0. 0. 0. 0. 0. 0. 0. 0. 0. 0. 0. 0. 0. 0. 0. 0. 0. 0. 0. 0. 0. 0. 0. 0. 0. 0. 0. 0. 0. 0. 0. 0. 0. 0. 0. 0. 0. 0. 0. 0. 0. 0. 0. 0. 0. 0. 0. 0. 0. 0. 0. 0. 0. 0. 0. 0. 0. 0. 0. 0. 0. 0. 0. 0. 0. 0. 0. 0. 0. 0. 0. 0. 0. 0. 0. 0. 0. 0. 0. 0. 0. 0. 0. 0. 0. 0. 0. 0. 0. 0. 0. 0. 0. 0. 0. 0. 0. 0. 0. 0. 0. 0. 0. 0. 0. 0. 0. 0. 0. 0. 0. 0. 0. 0. 0. 0. 0. 0. 0. 0. 0. 0. 0. 0. 0. 0. 0. 0. 0. 0. 0. 0. 0. 2304. 2304. 2304. 2304. 2304. 2304. 2304. 2304. 2304. 2304. 2320. 2320. 2320. 2320. 0. 0. 0. 0. 0. 0. 0. 0. 0. 0. 0. 0. 0. 0. 0. 0. 0. 0. 0. 0. 0. 0. 0. 0. 0. 0. 0. 0. 0. 0. 0. 0. 0. 0. 0. 0. 0. 0. 0. 0. 0. 0. 0. 0. 0. 0.
    0. 0. 0. 0. 0. 0. 0. 0. 2505. 2505. 2523. 2542. 2523. 2542. 2542. 2560. 2560. 2560. 2580. 2580. 2580. 2580. 2580. 2599. 2599. 2619. 2619. 2619. 2639. 2639. 2639. 2659. 2659. 2680. 2680. 2680. 2680. 2680. 2701. 2701. 2701. 2701. 2701. 2701. 2701. 2722. 2722. 2722. 2722. 2743. 2743. 2765. 2765. 2765. 2765. 2788. 2788. 2788. 2810. 2810. 2834. 2834. 2834. 2857. 2881. 2881. 2881. 2881. 2881. 2881. 2881. 2881. 2881. 2881. 2881. 2881. 2905. 2905. 2905. 2930. 2955. 2955. 2955. 2955. 2955. 2955. 2980. 2980. 3006. 3033. 3033. 3033. 3059. 3059. 3059. 3059. 3059. 3059. 3059. 3059. 3059. 3087. 3087. 3087. 3115. 3115. 3115. 3115. 3143. 3143. 3143. 3143. 3172. 3172. 3201. 3231. 3201. 3201. 3172. 3172. 3143. 3143. 3115. 3115. 3087. 3087. 3087. 3087. 3087. 3087. 3087. 3059. 3059. 3087. 3087. 3087. 3059. 3087. 3059. 3059. 3059. 3033. 3033. 3033. 3033. 3033. 3033. 3033. 3033. 3033. 3033. 3033. 3033. 3033. 3059. 3059. 3087. 3087. 3087. 3087. 3115. 3115. 3115. 3115. 3115. 3115. 3115. 3143. 3143. 3143. 3143. 3172. 3201. 3201. 3201. 3231. 3262. 3201. 3262. 3390. 3423. 3458. 3458. 3458. 3458. 3458. 3493. 3493. 3493. 3528. 3528. 3565. 3565. 3602. 3602. 3602. 3640. 3640. 3640. 3640. 3679. 3718. 3718. 3718. 3759. 3759. 3759. 3759. 3800. 3800. 3842. 3842. 3800. 3800. 3842. 3885. 3842. 3842. 3842. 1136. 1136. 1133. 1133. 1133. 1136. 1136. 1136. 1133. 1133. 1133. 1133. 1129. 1125. 1122. 1122. 1122. 1122. 1118. 1114. 1111. 1107. 1107. 1107. 1107. 1107. 1104. 1104. 1104. 1097. 1097. 1093. 1090. 1090. 1090. 1086. 1086. 1086. 1086. 1086. 1086. 1086. 1083. 1083. 1083. 1079. 1079. 1079. 1079. 1079. 1079. 1079. 1079. 1079. 1083. 1079. 1079. 1079. 1079. 1079. 1079. 1079. 1079. 1079. 1079. 1076. 1073. 1073. 1073. 1076. 1076. 1076. 1079. 1079. 1079. 1079. 1079. 1083. 1083. 1083. 1086. 0. 0. 0. 0. 0. 0. 0. 0. 0. 0. 0. 0. 0. 0. 0. 0. 0. 0. 0. 0. 0. 0. 0. 0. 0. 0. 0. 0. 0. 0. 0. 0. 0. 0. 0. 0. 0. 0. 0. 0. 0. 0. 0. 0. 0. 0. 0. 0. 0. 0. 0. 0. 0. 0. 0. 0. 0. 0. 0. 0. 0. 0. 0. 0. 0. 0. 0. 0. 0. 0. 0. 0. 0. 0. 0. 0. 0. 0. 0. 0. 0. 0. 0. 0. 0. 0. 0. 0. 0. 0. 0. 0. 0. 0. 0. 0. 0. 0. 0. 0. 0. 0. 0. 0. 0. 0. 0. 0. 0. 0. 0. 0. 0. 0. 0. 0. 0. 0. 0. 0. 0. 0. 0. 0. 0. 0. 0. 0. 0. 0. 0. 0. 0. 0. 0. 0. 0. 0. 0. 0. 0. 0. 0. 0. 0. 0. 0. 0. 0. 0. 0. 0. 0. 0. 0. 0. 0. 0. 0. 0. 0. 0. 0. 0. 0. 0. 0. 0. 0. 0. 0. 0. 0. 0. 0. 0. 0. 0. 0. 0. 0. 0. 0. 0. 0. 0. 0. 0. 0. 0. 0. 0. 0. 0. 0. 0. 0. 0. 0. 0. 0. 0. 0. 0. 0. 0. 0. 0. 0. 0. 0. 0. 0. 0. 0. 0. 0. 0. 0. 0. 0. 0. 0. 0. 0. 0. 0. 0. 0. 0. 0. 0. 0. 0. 0. 0. 0. 0. 0. 0. 0. 0. 0. 0. 0. 0. 0. 0. 0. 0. 0. 0. 0. 0. 0. 0. 0. 0. 0. 0. 0. 0. 0. 0. 0. 0. 0. 0. 0. 0. 0. 0. 0. 0. 0. 0. 0. 0. 0. 0. 2304. 2304. 2304. 2304. 2304. 2304. 2304. 2304. 2304. 2304. 2320. 2320. 2320. 2320. 0. 0. 0. 0. 0. 0. 0. 0. 0. 0. 0. 0. 0. 0. 0. 0. 0. 0. 0. 0. 0. 0. 0. 0. 0. 0. 0. 0. 0. 0. 0. 0. 0. 0. 0. 0. 0. 0. 0. 0. 0. 0. 0. 0. 0. 0.
    0. 0. 0. 0. 0. 0. 0. 0. 2505. 2523. 2523. 2542. 2523. 2542. 2542. 2560. 2560. 2560. 2580. 2580. 2580. 2580. 2580. 2599. 2599. 2619. 2619. 2639. 2639. 2639. 2639. 2659. 2659. 2680. 2680. 2680. 2680. 2680. 2701. 2701. 2701. 2701. 2701. 2701. 2701. 2722. 2722. 2722. 2743. 2743. 2743. 2765. 2765. 2765. 2788. 2788. 2788. 2810. 2810. 2810. 2810. 2834. 2834. 2857. 2857. 2881. 2881. 2881. 2881. 2881. 2881. 2881. 2881. 2881. 2881. 2881. 2905. 2905. 2930. 2930. 2955. 2955. 2955. 2955. 2955. 2955. 2980. 2980. 3006. 3006. 3033. 3033. 3059. 3059. 3059. 3059. 3059. 3059. 3059. 3087. 3087. 3087. 3115. 3115. 3115. 3115. 3115. 3115. 3115. 3143. 3143. 3143. 3172. 3172. 3172. 3231. 3201. 3201. 3201. 3172. 3172. 3143. 3115. 3115. 3087. 3087. 3059. 3087. 3087. 3087. 3087. 3059. 3059. 3087. 3087. 3087. 3087. 3087. 3087. 3087. 3059. 3033. 3033. 3033. 3033. 3033. 3033. 3033. 3033. 3033. 3033. 3033. 3033. 3033. 3059. 3059. 3087. 3087. 3087. 3115. 3115. 3115. 3115. 3115. 3115. 3115. 3143. 3115. 3143. 3143. 3143. 3172. 3172. 3201. 3201. 3231. 3231. 3201. 3231. 3357. 3423. 3458. 3458. 3458. 3458. 3458. 3458. 3458. 3493. 3493. 3528. 3565. 3602. 3602. 3602. 3602. 3640. 3640. 3640. 3640. 3679. 3679. 3718. 3718. 3718. 3759. 3759. 3759. 3800. 3800. 3842. 3885. 3842. 3800. 3842. 3842. 3842. 3842. 3842. 3885. 3885. 3930. 3975. 1133. 1133. 1136. 1136. 1136. 1133. 1133. 1133. 1129. 1125. 1122. 1122. 1122. 1118. 1118. 1114. 1111. 1107. 1107. 1107. 1107. 1104. 1104. 1104. 1104. 1100. 1097. 1093. 1090. 1090. 1090. 1090. 1086. 1086. 1086. 1086. 1086. 1086. 1086. 1083. 1079. 1079. 1079. 1079. 1083. 1079. 1079. 1079. 1079. 1083. 1083. 1079. 1079. 1079. 1079. 1079. 1079. 1079. 1079. 1079. 1079. 1076. 1073. 1073. 1073. 1076. 1076. 1076. 1073. 1073. 1076. 0. 0. 0. 0. 0. 0. 0. 0. 0. 0. 0. 0. 0. 0. 0. 0. 0. 0. 0. 0. 0. 0. 0. 0. 0. 0. 0. 0. 0. 0. 0. 0. 0. 0. 0. 0. 0. 0. 0. 0. 0. 0. 0. 0. 0. 0. 0. 0. 0. 0. 0. 0. 0. 0. 0. 0. 0. 0. 0. 0. 0. 0. 0. 0. 0. 0. 0. 0. 0. 0. 0. 0. 0. 0. 0. 0. 0. 0. 0. 0. 0. 0. 0. 0. 0. 0. 0. 0. 0. 0. 0. 0. 0. 0. 0. 0. 0. 0. 0. 0. 0. 0. 0. 0. 0. 0. 0. 0. 0. 0. 0. 0. 0. 0. 0. 0. 0. 0. 0. 0. 0. 0. 0. 0. 0. 0. 0. 0. 0. 0. 0. 0. 0. 0. 0. 0. 0. 0. 0. 0. 0. 0. 0. 0. 0. 0. 0. 0. 0. 0. 0. 0. 0. 0. 0. 0. 0. 0. 0. 0. 0. 0. 0. 0. 0. 0. 0. 0. 0. 0. 0. 0. 0. 0. 0. 0. 0. 0. 0. 0. 0. 0. 0. 0. 0. 0. 0. 0. 0. 0. 0. 0. 0. 0. 0. 0. 0. 0. 0. 0. 0. 0. 0. 0. 0. 0. 0. 0. 0. 0. 0. 0. 0. 0. 0. 0. 0. 0. 0. 0. 0. 0. 0. 0. 0. 0. 0. 0. 0. 0. 0. 0. 0. 0. 0. 0. 0. 0. 0. 0. 0. 0. 0. 0. 0. 0. 0. 0. 0. 0. 0. 0. 0. 0. 0. 0. 0. 0. 0. 0. 0. 0. 0. 0. 0. 0. 0. 0. 0. 0. 0. 0. 0. 0. 0. 0. 0. 0. 0. 0. 0. 0. 0. 0. 0. 2335. 2320. 2320. 2304. 2304. 2320. 2304. 2304. 2304. 2304. 2304. 2320. 2320. 2320. 2320. 0. 0. 0. 0. 0. 0. 0. 0. 0. 0. 0. 0. 0. 0. 0. 0. 0. 0. 0. 0. 0. 0. 0. 0. 0. 0. 0. 0. 0. 0. 0. 0. 0. 0. 0. 0. 0. 0. 0. 0. 0. 0. 0. 0. 0. 0.</data></depth_close>
</opencv_storage>
