<?xml version="1.0"?>
<opencv_storage>
<depth_far type_id="opencv-matrix">
  <rows>32</rows>
  <cols>640</cols>
  <dt>f</dt>
  <data>
    0. 0. 0. 0. 0. 0. 0. 0. 2523. 2523. 2523. 2542. 2542. 2542. 2560. 2560. 2560. 2560. 2580. 2580. 2580. 2599. 2599. 2599. 2619. 2619. 2639. 2639. 2639. 2639. 2639. 2659. 2659. 2659. 2680. 2659. 2680. 2680. 2701. 2701. 2701. 2722. 2722. 2722. 2722. 2743. 2743. 2765. 2765. 2765. 2765. 2765. 2765. 2765. 2788. 2788. 2788. 2810. 2810. 2810. 2834. 2834. 2834. 2857. 2857. 2881. 2881. 2881. 2905. 2905. 2905. 2905. 2905. 2930. 2930. 2930. 2955. 2980. 2980. 2980. 2980. 2980. 2980. 2980. 2980. 2980. 2980. 2980. 3006. 3006. 3006. 3006. 3006. 3006. 3033. 3033. 3033. 3059. 3059. 3087. 3087. 3115. 3115. 3143. 3143. 3143. 3143. 3143. 3143. 3172. 3172. 3172. 3172. 3172. 3201. 3201. 3201. 3172. 3172. 3143. 3143. 3115. 3087. 3087. 3059. 3059. 3059. 3087. 3087. 3087. 3087. 3059. 3059. 3087. 3087. 3087. 3087. 3087. 3087. 3087. 3087. 3059. 3059. 3059. 3059. 3059. 3059. 3059. 3059. 3059. 3059. 3033. 3033. 3033. 3033. 3033. 3059. 3059. 3087. 3087. 3115. 3115. 3115. 3115. 3115. 3115. 3143. 3143. 3143. 3143. 3115. 3143. 3143. 3172. 3201. 3262. 3293. 3324. 3357. 3458. 3458. 3493. 3493. 3493. 3493. 3493. 3493. 3493. 3493. 3493. 3528. 3565. 3565. 3602. 3602. 3602. 3602. 3640. 3640. 3640. 3640. 2765. 2765. 2765. 2765. 2765. 2765. 2765. 2743. 2743. 2743. 2743. 2743. 2743. 2743. 2743. 2743. 2765. 2765. 2788. 2788. 2788. 2810. 2810. 2810. 2834. 2834. 2834. 2857. 2857. 2857. 2857. 2857. 2857. 2857. 2857. 2857. 2881. 2905. 2930. 2930. 2955. 2955. 2980. 2980. 2980. 2980. 3006. 3006. 3006. 3006. 3006. 2980. 2980. 2980. 2980. 2980. 2980. 2980. 3006. 3006. 2980. 3006. 3006. 3033. 3033. 3033. 3006. 3033. 3033. 0. 0. 0. 0. 0. 0. 0. 0. 0. 0. 0. 0. 0. 0. 0. 0. 0. 0. 0. 0. 0. 0. 0. 0. 0. 0. 0. 0. 0. 0. 0. 0. 0. 0. 0. 0. 0. 0. 0. 0. 0. 0. 0. 0. 0. 0. 0. 0. 0. 0. 0. 0. 0. 0. 0. 0. 0. 0. 0. 0. 0. 0. 0. 0. 0. 0. 0. 0. 0. 0. 0. 0. 0. 0. 0. 0. 0. 0. 0. 0. 0. 0. 0. 0. 0. 0. 0. 0. 0. 0. 0. 0. 0. 0. 0. 0. 0. 0. 0. 0. 0. 0. 0. 0. 0. 0. 0. 0. 0. 0. 0. 0. 0. 0. 0. 0. 0. 0. 0. 0. 0. 0. 0. 0. 0. 0. 0. 0. 0. 0. 0. 0. 0. 0. 0. 0. 0. 0. 0. 0. 0. 0. 0. 0. 0. 0. 0. 0. 0. 0. 0. 0. 0. 0. 0. 0. 0. 0. 0. 0. 0. 0. 0. 0. 0. 0. 0. 0. 0. 0. 0. 0. 0. 0. 0. 0. 0. 0. 0. 0. 0. 0. 0. 0. 0. 0. 0. 0. 0. 0. 0. 0. 0. 0. 0. 0. 0. 0. 0. 0. 0. 0. 0. 0. 0. 0. 0. 0. 0. 0. 0. 0. 0. 0. 0. 0. 0. 0. 0. 0. 0. 0. 0. 0. 0. 0. 0. 0. 0. 0. 0. 0. 0. 0. 0. 0. 0. 0. 0. 0. 0. 0. 0. 0. 0. 0. 0. 0. 0. 0. 0. 0. 0. 0. 0. 0. 0. 0. 0. 0. 0. 0. 0. 0. 0. 0. 0. 0. 0. 0. 0. 0. 0. 0. 0. 0. 0. 0. 0. 0. 0. 0. 0. 0. 0. 0. 0. 0. 0. 0. 0. 0. 0. 0. 0. 0. 0. 0. 0. 0. 0. 0. 0. 0. 0. 0. 0. 0. 2351. 2351. 2335. 0. 0. 0. 0. 0. 0. 0. 0. 0. 0. 0. 0. 0. 0. 0. 0. 0. 2304. 2304. 2335. 2335. 2335. 2351. 2351. 0. 0. 0. 0. 0. 0. 0. 0. 0. 0. 0. 0. 0. 0. 0. 0. 0. 0. 0. 0. 0. 0. 0. 0. 0. 0. 0. 0. 0. 0. 0. 0. 0. 0. 0.
    0. 0. 0. 0. 0. 0. 0. 0. 2523. 2523. 2523. 2542. 2542. 2542. 2560. 2560. 2560. 2560. 2580. 2580. 2580. 2599. 2599. 2599. 2619. 2619. 2619. 2639. 2639. 2639. 2639. 2639. 2639. 2659. 2659. 2659. 2659. 2680. 2680. 2680. 2701. 2722. 2722. 2722. 2722. 2722. 2743. 2743. 2743. 2765. 2765. 2765. 2765. 2765. 2788. 2788. 2788. 2810. 2810. 2810. 2834. 2834. 2834. 2834. 2857. 2857. 2881. 2881. 2881. 2905. 2905. 2905. 2905. 2905. 2905. 2930. 2930. 2955. 2980. 2980. 2980. 2980. 3006. 2980. 2980. 2980. 2980. 2980. 3006. 3006. 3006. 3006. 3006. 3006. 3033. 3059. 3059. 3059. 3059. 3087. 3087. 3087. 3115. 3115. 3115. 3115. 3115. 3143. 3143. 3172. 3172. 3172. 3172. 3172. 3201. 3201. 3201. 3172. 3172. 3143. 3115. 3115. 3087. 3087. 3059. 3087. 3087. 3087. 3087. 3087. 3087. 3059. 3087. 3087. 3087. 3087. 3087. 3087. 3087. 3087. 3087. 3087. 3059. 3059. 3059. 3059. 3059. 3059. 3059. 3059. 3059. 3033. 3033. 3033. 3033. 3033. 3059. 3059. 3087. 3087. 3115. 3115. 3115. 3115. 3115. 3115. 3115. 3143. 3115. 3143. 3115. 3143. 3143. 3172. 3201. 3231. 3293. 3324. 3357. 3423. 3458. 3493. 3493. 3493. 3493. 3493. 3493. 3493. 3493. 3493. 3528. 3565. 3565. 3602. 3602. 3602. 3640. 3640. 3640. 3640. 3640. 3640. 2765. 2765. 2765. 2765. 2765. 2765. 2743. 2743. 2743. 2743. 2743. 2743. 2743. 2743. 2765. 2765. 2765. 2788. 2788. 2810. 2810. 2810. 2810. 2810. 2834. 2834. 2857. 2857. 2857. 2857. 2857. 2881. 2881. 2881. 2881. 2905. 2905. 2930. 2955. 2955. 2955. 2980. 2980. 2980. 2980. 3006. 3006. 3006. 3006. 3006. 2980. 2980. 2980. 2980. 2980. 2980. 2980. 3006. 3006. 3006. 3006. 3006. 3033. 3033. 3006. 3006. 3033. 0. 0. 0. 0. 0. 0. 0. 0. 0. 0. 0. 0. 0. 0. 0. 0. 0. 0. 0. 0. 0. 0. 0. 0. 0. 0. 0. 0. 0. 0. 0. 0. 0. 0. 0. 0. 0. 0. 0. 0. 0. 0. 0. 0. 0. 0. 0. 0. 0. 0. 0. 0. 0. 0. 0. 0. 0. 0. 0. 0. 0. 0. 0. 0. 0. 0. 0. 0. 0. 0. 0. 0. 0. 0. 0. 0. 0. 0. 0. 0. 0. 0. 0. 0. 0. 0. 0. 0. 0. 0. 0. 0. 0. 0. 0. 0. 0. 0. 0. 0. 0. 0. 0. 0. 0. 0. 0. 0. 0. 0. 0. 0. 0. 0. 0. 0. 0. 0. 0. 0. 0. 0. 0. 0. 0. 0. 0. 0. 0. 0. 0. 0. 0. 0. 0. 0. 0. 0. 0. 0. 0. 0. 0. 0. 0. 0. 0. 0. 0. 0. 0. 0. 0. 0. 0. 0. 0. 0. 0. 0. 0. 0. 0. 0. 0. 0. 0. 0. 0. 0. 0. 0. 0. 0. 0. 0. 0. 0. 0. 0. 0. 0. 0. 0. 0. 0. 0. 0. 0. 0. 0. 0. 0. 0. 0. 0. 0. 0. 0. 0. 0. 0. 0. 0. 0. 0. 0. 0. 0. 0. 0. 0. 0. 0. 0. 0. 0. 0. 0. 0. 0. 0. 0. 0. 0. 0. 0. 0. 0. 0. 0. 0. 0. 0. 0. 0. 0. 0. 0. 0. 0. 0. 0. 0. 0. 0. 0. 0. 0. 0. 0. 0. 0. 0. 0. 0. 0. 0. 0. 0. 0. 0. 0. 0. 0. 0. 0. 0. 0. 0. 0. 0. 0. 0. 0. 0. 0. 0. 0. 0. 0. 0. 0. 0. 0. 0. 0. 0. 0. 0. 0. 0. 0. 0. 0. 0. 0. 0. 0. 0. 0. 0. 0. 0. 0. 0. 0. 0. 0. 2304. 2335. 2335. 0. 0. 0. 0. 0. 0. 0. 0. 0. 0. 0. 0. 0. 0. 0. 0. 0. 2289. 2304. 2335. 2335. 2335. 2335. 0. 0. 0. 0. 0. 0. 0. 0. 0. 0. 0. 0. 0. 0. 0. 0. 0. 0. 0. 0. 0. 0. 0. 0. 0. 0. 0. 0. 0. 0. 0. 0. 0. 0. 0. 0.
    0. 0. 0. 0. 0. 0. 0. 0. 2523. 2523. 2523. 2523. 2542. 2542. 2560. 2580. 2560. 2560. 2580. 2580. 2599. 2599. 2619. 2619. 2619. 2639. 2639. 2639. 2639. 2639. 2639. 2639. 2639. 2659. 2659. 2659. 2659. 2680. 2680. 2680. 2701. 2701. 2722. 2722. 2722. 2743. 2743. 2743. 2743. 2765. 2743. 2765. 2765. 2765. 2788. 2788. 2788. 2788. 2810. 2810. 2834. 2834. 2834. 2857. 2857. 2857. 2881. 2881. 2881. 2905. 2905. 2905. 2905. 2905. 2905. 2930. 2930. 2955. 2955. 2980. 2980. 2980. 2980. 2980. 2980. 2980. 3006. 2980. 3006. 3006. 3006. 3006. 3006. 3006. 3033. 3059. 3059. 3059. 3059. 3087. 3087. 3087. 3087. 3115. 3115. 3115. 3115. 3143. 3143. 3172. 3172. 3172. 3172. 3172. 3201. 3201. 3201. 3172. 3143. 3143. 3115. 3087. 3087. 3059. 3059. 3059. 3059. 3059. 3087. 3087. 3087. 3059. 3087. 3087. 3087. 3087. 3087. 3087. 3087. 3087. 3087. 3087. 3059. 3059. 3059. 3059. 3059. 3059. 3059. 3059. 3059. 3033. 3033. 3033. 3033. 3033. 3059. 3059. 3087. 3087. 3115. 3115. 3115. 3115. 3115. 3115. 3115. 3115. 3115. 3115. 3115. 3143. 3143. 3172. 3231. 3231. 3293. 3324. 3324. 3390. 3423. 3458. 3493. 3493. 3493. 3493. 3493. 3493. 3493. 3493. 3528. 3528. 3565. 3602. 3602. 3602. 3640. 3640. 3640. 3640. 3640. 3679. 2765. 2765. 2765. 2765. 2765. 2765. 2765. 2743. 2743. 2743. 2743. 2743. 2743. 2743. 2743. 2765. 2765. 2788. 2788. 2810. 2810. 2810. 2810. 2810. 2834. 2834. 2857. 2857. 2857. 2857. 2857. 2857. 2857. 2881. 2881. 2905. 2930. 2955. 2955. 2955. 2980. 2980. 2980. 2980. 2980. 3006. 3006. 3006. 3006. 3006. 2980. 2980. 2980. 2980. 2980. 2980. 2980. 3006. 3006. 3006. 3033. 3033. 3033. 3033. 3033. 3033. 3033. 0. 0. 0. 0. 0. 0. 0. 0. 0. 0. 0. 0. 0. 0. 0. 0. 0. 0. 0. 0. 0. 0. 0. 0. 0. 0. 0. 0. 0. 0. 0. 0. 0. 0. 0. 0. 0. 0. 0. 0. 0. 0. 0. 0. 0. 0. 0. 0. 0. 0. 0. 0. 0. 0. 0. 0. 0. 0. 0. 0. 0. 0. 0. 0. 0. 0. 0. 0. 0. 0. 0. 0. 0. 0. 0. 0. 0. 0. 0. 0. 0. 0. 0. 0. 0. 0. 0. 0. 0. 0. 0. 0. 0. 0. 0. 0. 0. 0. 0. 0. 0. 0. 0. 0. 0. 0. 0. 0. 0. 0. 0. 0. 0. 0. 0. 0. 0. 0. 0. 0. 0. 0. 0. 0. 0. 0. 0. 0. 0. 0. 0. 0. 0. 0. 0. 0. 0. 0. 0. 0. 0. 2160. 0. 0. 0. 0. 0. 0. 0. 0. 0. 0. 0. 0. 0. 0. 0. 0. 0. 0. 0. 0. 0. 0. 0. 0. 0. 0. 0. 0. 0. 0. 0. 0. 0. 0. 0. 0. 0. 0. 0. 0. 0. 0. 0. 0. 0. 0. 0. 0. 0. 0. 0. 0. 0. 0. 0. 0. 0. 0. 0. 0. 0. 0. 0. 0. 0. 0. 0. 0. 0. 0. 0. 0. 0. 0. 0. 0. 0. 0. 0. 0. 0. 0. 0. 0. 0. 0. 0. 0. 0. 0. 0. 0. 0. 0. 0. 0. 0. 0. 0. 0. 0. 0. 0. 0. 0. 0. 0. 0. 0. 0. 0. 0. 0. 0. 0. 0. 0. 0. 0. 0. 0. 0. 0. 0. 0. 0. 0. 0. 0. 0. 0. 0. 0. 0. 0. 0. 0. 0. 0. 0. 0. 0. 0. 0. 0. 0. 0. 0. 0. 0. 0. 0. 0. 0. 0. 0. 0. 0. 0. 0. 0. 0. 0. 0. 0. 0. 0. 2351. 2335. 2335. 2335. 0. 0. 0. 0. 0. 0. 0. 0. 0. 0. 0. 0. 0. 0. 0. 0. 0. 2289. 2335. 2335. 2335. 2351. 0. 0. 0. 0. 0. 0. 0. 0. 0. 0. 0. 0. 0. 0. 0. 0. 0. 0. 0. 0. 0. 0. 0. 0. 0. 0. 0. 0. 0. 0. 0. 0. 0. 0. 0. 0.
    0. 0. 0. 0. 0. 0. 0. 0. 2523. 2523. 2523. 2523. 2542. 2542. 2560. 2560. 2560. 2560. 2580. 2580. 2599. 2599. 2619. 2619. 2619. 2639. 2639. 2639. 2639. 2639. 2639. 2639. 2639. 2659. 2659. 2659. 2659. 2659. 2680. 2680. 2701. 2701. 2722. 2722. 2722. 2743. 2743. 2743. 2743. 2743. 2743. 2743. 2765. 2765. 2765. 2788. 2788. 2788. 2810. 2810. 2834. 2834. 2834. 2857. 2857. 2881. 2881. 2881. 2881. 2905. 2905. 2905. 2905. 2905. 2930. 2930. 2930. 2955. 2955. 2955. 2980. 2980. 2980. 2980. 2980. 2980. 2980. 2980. 3006. 3006. 3006. 3006. 3006. 3006. 3033. 3059. 3059. 3059. 3087. 3087. 3087. 3087. 3087. 3087. 3115. 3115. 3115. 3143. 3143. 3172. 3172. 3172. 3172. 3172. 3201. 3201. 3201. 3172. 3172. 3143. 3115. 3087. 3059. 3059. 3059. 3059. 3059. 3059. 3087. 3087. 3087. 3059. 3087. 3059. 3087. 3087. 3059. 3087. 3087. 3087. 3087. 3059. 3059. 3059. 3059. 3059. 3059. 3059. 3059. 3059. 3059. 3033. 3033. 3033. 3033. 3059. 3059. 3059. 3087. 3087. 3087. 3115. 3115. 3115. 3115. 3115. 3115. 3115. 3143. 3143. 3143. 3143. 3143. 3172. 3231. 3262. 3293. 3324. 3324. 3390. 3423. 3458. 3493. 3493. 3458. 3458. 3458. 3458. 3493. 3493. 3528. 3528. 3565. 3602. 3602. 3602. 3602. 3640. 3640. 3640. 3640. 3640. 3640. 2788. 2765. 2788. 2788. 2788. 2765. 2765. 2743. 2743. 2743. 2743. 2743. 2743. 2743. 2743. 2765. 2788. 2788. 2810. 2810. 2810. 2810. 2810. 2834. 2834. 2857. 2857. 2857. 2857. 2857. 2857. 2857. 2857. 2881. 2881. 2930. 2930. 2955. 2980. 2980. 2980. 2980. 2980. 2980. 3006. 3006. 3006. 3006. 3006. 2980. 3006. 3006. 2980. 3006. 3006. 3006. 3006. 3006. 3033. 3033. 3033. 3033. 3059. 3059. 3033. 3059. 0. 0. 0. 0. 0. 0. 0. 0. 0. 0. 0. 0. 0. 0. 0. 0. 0. 0. 0. 0. 0. 0. 0. 0. 0. 0. 0. 0. 0. 0. 0. 0. 0. 0. 0. 0. 0. 0. 0. 0. 0. 0. 0. 0. 0. 0. 0. 0. 0. 0. 0. 0. 0. 0. 0. 0. 0. 0. 0. 0. 0. 0. 0. 0. 0. 0. 0. 0. 0. 0. 0. 0. 0. 0. 0. 0. 0. 0. 0. 0. 0. 0. 0. 0. 0. 0. 0. 0. 0. 0. 0. 0. 0. 0. 0. 0. 0. 0. 0. 0. 0. 0. 0. 0. 0. 0. 0. 0. 0. 0. 0. 0. 0. 0. 0. 0. 0. 0. 0. 0. 0. 0. 0. 0. 0. 0. 0. 0. 0. 0. 0. 0. 0. 0. 0. 0. 2147. 2147. 2160. 2160. 2160. 2160. 2160. 2147. 2147. 0. 0. 0. 0. 0. 0. 0. 0. 0. 0. 0. 0. 0. 0. 0. 0. 0. 0. 0. 0. 0. 0. 0. 0. 0. 0. 0. 0. 0. 0. 0. 0. 0. 0. 0. 0. 0. 0. 0. 0. 0. 0. 0. 0. 0. 0. 0. 0. 0. 0. 0. 0. 0. 0. 0. 0. 0. 0. 0. 0. 0. 0. 0. 0. 0. 0. 0. 0. 0. 0. 0. 0. 0. 0. 0. 0. 0. 0. 0. 0. 0. 0. 0. 0. 0. 0. 0. 0. 0. 0. 0. 0. 0. 0. 0. 0. 0. 0. 0. 0. 0. 0. 0. 0. 0. 0. 0. 0. 0. 0. 0. 0. 0. 0. 0. 0. 0. 0. 0. 0. 0. 0. 0. 0. 0. 0. 0. 0. 0. 0. 0. 0. 0. 0. 0. 0. 0. 0. 0. 0. 0. 0. 0. 0. 0. 0. 0. 0. 0. 0. 0. 0. 0. 0. 0. 0. 0. 0. 0. 0. 0. 0. 0. 0. 0. 0. 0. 0. 0. 0. 0. 0. 0. 0. 0. 0. 0. 0. 0. 0. 0. 0. 0. 0. 2289. 2289. 2335. 2335. 2335. 2335. 2335. 2320. 2335. 0. 0. 0. 0. 0. 0. 0. 0. 0. 0. 0. 0. 0. 0. 0. 0. 0. 0. 0. 0. 0. 0. 0. 0. 0. 0. 0. 0. 0. 0. 0. 0. 0.
    0. 0. 0. 0. 0. 0. 0. 0. 2523. 2523. 2523. 2523. 2542. 2542. 2560. 2560. 2560. 2560. 2580. 2580. 2599. 2599. 2619. 2619. 2619. 2639. 2639. 2639. 2639. 2639. 2639. 2639. 2639. 2639. 2659. 2659. 2659. 2659. 2680. 2680. 2701. 2701. 2722. 2722. 2722. 2743. 2743. 2743. 2743. 2743. 2743. 2743. 2765. 2765. 2765. 2788. 2788. 2788. 2810. 2810. 2834. 2834. 2834. 2857. 2881. 2881. 2881. 2881. 2881. 2905. 2905. 2905. 2905. 2905. 2905. 2905. 2930. 2930. 2930. 2955. 2980. 2980. 2980. 2955. 2980. 2980. 2980. 2980. 3006. 3006. 3006. 3006. 3006. 3006. 3033. 3059. 3059. 3059. 3059. 3087. 3087. 3087. 3087. 3087. 3087. 3115. 3115. 3143. 3143. 3143. 3172. 3172. 3172. 3201. 3201. 3201. 3201. 3172. 3172. 3143. 3115. 3087. 3059. 3059. 3059. 3059. 3059. 3059. 3087. 3059. 3087. 3059. 3059. 3059. 3059. 3059. 3059. 3059. 3059. 3087. 3059. 3059. 3059. 3059. 3059. 3059. 3059. 3059. 3059. 3059. 3087. 3059. 3059. 3059. 3059. 3059. 3059. 3087. 3087. 3115. 3115. 3115. 3115. 3115. 3115. 3115. 3115. 3143. 3143. 3143. 3143. 3143. 3172. 3172. 3231. 3231. 3293. 3324. 3324. 3390. 3458. 3458. 3493. 3493. 3458. 3458. 3458. 3493. 3493. 3493. 3528. 3528. 3565. 3602. 3602. 3602. 3640. 3640. 3640. 3640. 3640. 3679. 3640. 2788. 2788. 2788. 2788. 2788. 2788. 2765. 2765. 2765. 2765. 2743. 2743. 2743. 2765. 2765. 2765. 2788. 2810. 2810. 2810. 2810. 2810. 2810. 2834. 2834. 2834. 2857. 2857. 2857. 2857. 2857. 2857. 2881. 2881. 2905. 2930. 2955. 2955. 2955. 2980. 2980. 2980. 2980. 2980. 3006. 3006. 3006. 3006. 3006. 2980. 2980. 2980. 2980. 2980. 2980. 2980. 3006. 3006. 3006. 3033. 3033. 3033. 3059. 3059. 0. 0. 0. 0. 0. 0. 0. 0. 0. 0. 0. 0. 0. 0. 0. 0. 0. 0. 0. 0. 0. 0. 0. 0. 0. 0. 0. 0. 0. 0. 0. 0. 0. 0. 0. 0. 0. 0. 0. 0. 0. 0. 0. 0. 0. 0. 0. 0. 0. 0. 0. 0. 0. 0. 0. 0. 0. 0. 0. 0. 0. 0. 0. 0. 0. 0. 0. 0. 0. 0. 0. 0. 0. 0. 0. 0. 0. 0. 0. 0. 0. 0. 0. 0. 0. 0. 0. 0. 0. 0. 0. 0. 0. 0. 0. 0. 0. 0. 0. 0. 0. 0. 0. 0. 0. 0. 0. 0. 0. 0. 0. 0. 0. 0. 0. 0. 0. 0. 0. 0. 0. 0. 0. 0. 0. 0. 0. 0. 0. 0. 0. 0. 0. 0. 0. 0. 0. 2133. 2147. 2147. 2147. 2147. 2147. 2147. 2147. 2147. 2133. 2133. 2133. 2133. 2120. 2120. 0. 0. 0. 0. 0. 0. 0. 0. 0. 0. 0. 0. 0. 0. 0. 0. 0. 0. 0. 0. 0. 0. 0. 0. 0. 0. 0. 0. 0. 0. 0. 0. 0. 0. 0. 0. 0. 0. 0. 0. 0. 0. 0. 0. 0. 0. 0. 0. 0. 0. 0. 0. 0. 0. 0. 0. 0. 0. 0. 0. 0. 0. 0. 0. 0. 0. 0. 0. 0. 0. 0. 0. 0. 0. 0. 0. 0. 0. 0. 0. 0. 0. 0. 0. 0. 0. 0. 0. 0. 0. 0. 0. 0. 0. 0. 0. 0. 0. 0. 0. 0. 0. 0. 0. 0. 0. 0. 0. 0. 0. 0. 0. 0. 0. 0. 0. 0. 0. 0. 0. 0. 0. 0. 0. 0. 0. 0. 0. 0. 0. 0. 0. 0. 0. 0. 0. 0. 0. 0. 0. 0. 0. 0. 0. 0. 0. 0. 0. 0. 0. 0. 0. 0. 0. 0. 0. 0. 0. 0. 0. 0. 0. 0. 0. 0. 0. 0. 0. 0. 0. 0. 0. 0. 0. 0. 0. 0. 0. 0. 2289. 2289. 2351. 2351. 2351. 0. 0. 0. 0. 0. 0. 0. 0. 0. 0. 0. 0. 0. 0. 0. 0. 0. 0. 0. 0. 0. 0. 0. 0. 0. 0. 0. 0. 0. 0. 0. 0. 0. 0. 0. 0. 0.
    0. 0. 0. 0. 0. 0. 0. 0. 2505. 2523. 2523. 2542. 2542. 2542. 2560. 2580. 2560. 2560. 2580. 2580. 2599. 2619. 2619. 2619. 2619. 2619. 2619. 2619. 2619. 2639. 2639. 2639. 2639. 2659. 2659. 2659. 2659. 2680. 2680. 2701. 2701. 2722. 2722. 2722. 2722. 2743. 2743. 2743. 2743. 2743. 2743. 2743. 2765. 2765. 2765. 2788. 2788. 2788. 2810. 2810. 2834. 2834. 2834. 2857. 2857. 2881. 2881. 2881. 2881. 2905. 2905. 2905. 2905. 2905. 2905. 2905. 2930. 2930. 2930. 2955. 2955. 2980. 2980. 2955. 2980. 2980. 2980. 2980. 3006. 3006. 3006. 3006. 3006. 3006. 3033. 3059. 3059. 3059. 3059. 3059. 3087. 3087. 3087. 3087. 3115. 3115. 3115. 3143. 3143. 3143. 3172. 3172. 3172. 3201. 3201. 3201. 3201. 3172. 3172. 3143. 3115. 3115. 3087. 3059. 3059. 3059. 3059. 3087. 3087. 3087. 3087. 3059. 3059. 3059. 3059. 3059. 3059. 3059. 3059. 3059. 3059. 3059. 3059. 3059. 3059. 3059. 3059. 3059. 3059. 3059. 3087. 3059. 3059. 3059. 3059. 3059. 3059. 3087. 3087. 3087. 3115. 3115. 3115. 3115. 3115. 3115. 3115. 3143. 3143. 3143. 3143. 3143. 3172. 3172. 3231. 3262. 3293. 3324. 3357. 3390. 3423. 3458. 3493. 3493. 3493. 3458. 3458. 3493. 3493. 3493. 3528. 3528. 3565. 3565. 3602. 3602. 3602. 3640. 3640. 3640. 3640. 3679. 3679. 2788. 2788. 2788. 2810. 2810. 2788. 2788. 2788. 2788. 2788. 2765. 2765. 2788. 2788. 2788. 2788. 2810. 2810. 2810. 2810. 2810. 2810. 2810. 2834. 2834. 2834. 2857. 2857. 2857. 2857. 2857. 2857. 2881. 2881. 2905. 2930. 2955. 2955. 2980. 2980. 2980. 3006. 2980. 2980. 3006. 3006. 3006. 3006. 3006. 2980. 2980. 2980. 2980. 2980. 2980. 2980. 3006. 3006. 3006. 3033. 3033. 3033. 3059. 0. 0. 0. 0. 0. 0. 0. 0. 0. 0. 0. 0. 0. 0. 0. 0. 0. 0. 0. 0. 0. 0. 0. 0. 0. 0. 0. 0. 0. 0. 0. 0. 0. 0. 0. 0. 0. 0. 0. 0. 0. 0. 0. 0. 0. 0. 0. 0. 0. 0. 0. 0. 0. 0. 0. 0. 0. 0. 0. 0. 0. 0. 0. 0. 0. 0. 0. 0. 0. 0. 0. 0. 0. 0. 0. 0. 0. 0. 0. 0. 0. 0. 0. 0. 0. 0. 0. 0. 0. 0. 0. 0. 0. 0. 0. 0. 0. 0. 0. 0. 0. 0. 0. 0. 0. 0. 0. 0. 0. 0. 0. 0. 0. 0. 0. 0. 0. 0. 0. 0. 0. 0. 0. 0. 0. 0. 0. 0. 0. 0. 0. 0. 0. 0. 2147. 0. 2133. 2133. 2133. 2147. 2133. 2147. 2147. 2147. 2147. 2133. 2133. 2133. 2133. 2120. 2120. 2120. 2120. 2120. 0. 0. 0. 0. 0. 0. 0. 0. 0. 0. 0. 0. 0. 0. 0. 0. 0. 0. 0. 0. 0. 0. 0. 0. 0. 0. 0. 0. 0. 0. 0. 0. 0. 0. 0. 0. 0. 0. 0. 0. 0. 0. 0. 0. 0. 0. 0. 0. 0. 0. 0. 0. 0. 0. 0. 0. 0. 0. 0. 0. 0. 0. 0. 0. 0. 0. 0. 0. 0. 0. 0. 0. 0. 0. 0. 0. 0. 0. 0. 0. 0. 0. 0. 0. 0. 0. 0. 0. 0. 0. 0. 0. 0. 0. 0. 0. 0. 0. 0. 0. 0. 0. 0. 0. 0. 0. 0. 0. 0. 0. 0. 0. 0. 0. 0. 0. 0. 0. 0. 0. 0. 0. 0. 0. 0. 0. 0. 0. 0. 0. 0. 0. 0. 0. 0. 0. 0. 0. 0. 0. 0. 0. 0. 0. 0. 0. 0. 0. 0. 0. 0. 0. 0. 0. 0. 0. 0. 0. 0. 0. 0. 0. 0. 0. 0. 0. 0. 0. 0. 0. 0. 0. 0. 0. 0. 0. 0. 0. 2304. 2304. 2320. 2320. 0. 0. 0. 0. 0. 0. 0. 0. 0. 0. 0. 0. 0. 0. 0. 0. 0. 0. 0. 0. 0. 0. 0. 0. 0. 0. 0. 0. 0. 0. 0. 0. 0. 0. 0. 0. 0. 0.
    0. 0. 0. 0. 0. 0. 0. 0. 2505. 2523. 2523. 2523. 2542. 2560. 2560. 2580. 2560. 2560. 2580. 2580. 2599. 2619. 2619. 2619. 2619. 2639. 2639. 2639. 2639. 2639. 2639. 2639. 2659. 2659. 2659. 2659. 2659. 2680. 2680. 2680. 2701. 2701. 2722. 2722. 2722. 2743. 2743. 2743. 2743. 2743. 2743. 2743. 2743. 2765. 2765. 2788. 2788. 2810. 2810. 2810. 2834. 2834. 2834. 2857. 2857. 2881. 2881. 2881. 2881. 2905. 2905. 2905. 2905. 2905. 2905. 2905. 2930. 2930. 2930. 2955. 2955. 2980. 2980. 2955. 2980. 2980. 2980. 2980. 3006. 3006. 3006. 3006. 3006. 3033. 3033. 3059. 3059. 3059. 3059. 3059. 3087. 3087. 3087. 3087. 3115. 3115. 3115. 3143. 3143. 3143. 3172. 3172. 3172. 3172. 3201. 3201. 3201. 3172. 3172. 3143. 3143. 3115. 3087. 3059. 3059. 3059. 3059. 3059. 3087. 3087. 3087. 3059. 3059. 3059. 3059. 3059. 3059. 3059. 3059. 3059. 3059. 3059. 3059. 3059. 3059. 3059. 3059. 3059. 3087. 3087. 3087. 3059. 3059. 3059. 3059. 3059. 3087. 3087. 3087. 3115. 3115. 3115. 3115. 3115. 3115. 3115. 3115. 3143. 3143. 3143. 3143. 3143. 3172. 3201. 3231. 3262. 3293. 3324. 3357. 3390. 3423. 3458. 3493. 3493. 3458. 3458. 3458. 3493. 3493. 3493. 3528. 3565. 3565. 3602. 3602. 3602. 3602. 3640. 3640. 3640. 3640. 3679. 3679. 2834. 2810. 2810. 2810. 2810. 2810. 2810. 2810. 2788. 2788. 2788. 2788. 2788. 2810. 2810. 2810. 2810. 2810. 2810. 2810. 2810. 2810. 2810. 2834. 2834. 2834. 2834. 2834. 2857. 2857. 2857. 2857. 2881. 2881. 2930. 2955. 2955. 2980. 2980. 2980. 2980. 2980. 2980. 2980. 2980. 2980. 3006. 3006. 3006. 2980. 2980. 2980. 2980. 2980. 2980. 2980. 3006. 3006. 3006. 3033. 3033. 3033. 3059. 0. 0. 0. 0. 0. 0. 0. 0. 0. 0. 0. 0. 0. 0. 0. 0. 0. 0. 0. 0. 0. 0. 0. 0. 0. 0. 0. 0. 0. 0. 0. 0. 0. 0. 0. 0. 0. 0. 0. 0. 0. 0. 0. 0. 0. 0. 0. 0. 0. 0. 0. 0. 0. 0. 0. 0. 0. 0. 0. 0. 0. 0. 0. 0. 0. 0. 0. 0. 0. 0. 0. 0. 0. 0. 0. 0. 0. 0. 0. 0. 0. 0. 0. 0. 0. 0. 0. 0. 0. 0. 0. 0. 0. 0. 0. 0. 0. 0. 0. 0. 0. 0. 0. 0. 0. 0. 0. 0. 0. 0. 0. 0. 0. 0. 0. 0. 0. 0. 0. 0. 0. 0. 0. 0. 0. 0. 0. 0. 0. 0. 0. 0. 0. 0. 2133. 2133. 2133. 2133. 2133. 2133. 2133. 2133. 2133. 2133. 2133. 2120. 2120. 2120. 2120. 2120. 2120. 2120. 2120. 2120. 2107. 0. 0. 0. 0. 0. 0. 0. 0. 0. 0. 0. 0. 0. 0. 0. 0. 0. 0. 0. 0. 0. 0. 0. 0. 0. 0. 0. 0. 0. 0. 0. 0. 0. 0. 0. 0. 0. 0. 0. 0. 0. 0. 0. 0. 0. 0. 0. 0. 0. 0. 0. 0. 0. 0. 0. 0. 0. 0. 0. 0. 0. 0. 0. 0. 0. 0. 0. 0. 0. 0. 0. 0. 0. 0. 0. 0. 0. 0. 0. 0. 0. 0. 0. 0. 0. 0. 0. 0. 0. 0. 0. 0. 0. 0. 0. 0. 0. 0. 0. 0. 0. 0. 0. 0. 0. 0. 0. 0. 0. 0. 0. 0. 0. 0. 0. 0. 0. 0. 0. 0. 0. 0. 0. 0. 0. 0. 0. 0. 0. 0. 0. 0. 0. 0. 0. 0. 0. 0. 0. 0. 0. 0. 0. 0. 0. 0. 0. 0. 0. 0. 0. 0. 0. 0. 0. 0. 0. 0. 0. 0. 0. 0. 0. 0. 0. 0. 0. 0. 0. 0. 0. 0. 0. 0. 0. 2289. 2289. 2289. 2304. 2320. 2320. 0. 0. 0. 0. 0. 0. 0. 0. 0. 0. 0. 0. 0. 0. 0. 0. 0. 0. 0. 0. 0. 0. 0. 0. 0. 0. 0. 0. 0. 0. 0. 0. 0. 0. 0. 0. 0. 0.
    0. 0. 0. 0. 0. 0. 0. 0. 2505. 2523. 2523. 2523. 2542. 2560. 2560. 2580. 2560. 2560. 2580. 2580. 2599. 2619. 2619. 2619. 2619. 2639. 2639. 2639. 2639. 2639. 2639. 2639. 2659. 2659. 2659. 2659. 2659. 2680. 2680. 2701. 2701. 2701. 2722. 2722. 2722. 2743. 2743. 2743. 2743. 2743. 2743. 2743. 2743. 2743. 2765. 2788. 2788. 2788. 2788. 2810. 2810. 2810. 2834. 2857. 2857. 2881. 2881. 2881. 2881. 2905. 2905. 2905. 2905. 2905. 2905. 2905. 2930. 2930. 2930. 2955. 2955. 2980. 2980. 2955. 2980. 2980. 2980. 2980. 3006. 3006. 3006. 3006. 3006. 3006. 3033. 3059. 3059. 3059. 3059. 3059. 3087. 3087. 3087. 3087. 3115. 3115. 3143. 3143. 3143. 3143. 3172. 3172. 3172. 3172. 3172. 3201. 3201. 3172. 3172. 3143. 3143. 3115. 3087. 3087. 3087. 3087. 3059. 3087. 3087. 3087. 3087. 3059. 3059. 3059. 3059. 3059. 3059. 3059. 3059. 3059. 3059. 3059. 3059. 3059. 3059. 3059. 3059. 3059. 3087. 3087. 3087. 3059. 3059. 3059. 3087. 3087. 3087. 3087. 3087. 3087. 3087. 3087. 3087. 3115. 3115. 3115. 3143. 3143. 3143. 3143. 3143. 3172. 3172. 3201. 3231. 3231. 3262. 3293. 3324. 3390. 3423. 3423. 3493. 3493. 3458. 3458. 3458. 3493. 3493. 3528. 3528. 3565. 3602. 3602. 3602. 3602. 3640. 3640. 3640. 3679. 3679. 3679. 3679. 2810. 2810. 2810. 2810. 2810. 2810. 2810. 2810. 2788. 2810. 2788. 2810. 2810. 2810. 2834. 2810. 2810. 2810. 2810. 2810. 2810. 2810. 2810. 2834. 2834. 2834. 2834. 2834. 2834. 2857. 2857. 2857. 2881. 2905. 2955. 2980. 2980. 2980. 2980. 2980. 2980. 2980. 2980. 2980. 2980. 2980. 2980. 3006. 3006. 2980. 2980. 2980. 2980. 2980. 2980. 2980. 3006. 3006. 3006. 3033. 3033. 3033. 3059. 0. 0. 0. 0. 0. 0. 0. 0. 0. 0. 0. 0. 0. 0. 0. 0. 0. 0. 0. 0. 0. 0. 0. 0. 0. 0. 0. 0. 0. 0. 0. 0. 0. 0. 0. 0. 0. 0. 0. 0. 0. 0. 0. 0. 0. 0. 0. 0. 0. 0. 0. 0. 0. 0. 0. 0. 0. 0. 0. 0. 0. 0. 0. 0. 0. 0. 0. 0. 0. 0. 0. 0. 0. 0. 0. 0. 0. 0. 0. 0. 0. 0. 0. 0. 0. 0. 0. 0. 0. 0. 0. 0. 0. 0. 0. 0. 0. 0. 0. 0. 0. 0. 0. 0. 0. 0. 0. 0. 0. 0. 0. 0. 0. 0. 0. 0. 0. 0. 0. 0. 0. 0. 0. 0. 0. 0. 0. 0. 0. 0. 0. 0. 2120. 2120. 2133. 2133. 2133. 2120. 2133. 2120. 2120. 2133. 2120. 2120. 2120. 2120. 2107. 2107. 2120. 2120. 2120. 2120. 2120. 2120. 2107. 2107. 0. 0. 0. 0. 0. 0. 0. 0. 0. 0. 0. 0. 0. 0. 0. 0. 0. 0. 0. 0. 0. 0. 0. 0. 0. 0. 0. 0. 0. 0. 0. 0. 0. 0. 0. 0. 0. 0. 0. 0. 0. 0. 0. 0. 0. 0. 0. 0. 0. 0. 0. 0. 0. 0. 0. 0. 0. 0. 0. 0. 0. 0. 0. 0. 0. 0. 0. 0. 0. 0. 0. 0. 0. 0. 0. 0. 0. 0. 0. 0. 0. 0. 0. 0. 0. 0. 0. 0. 0. 0. 0. 0. 0. 0. 0. 0. 0. 0. 0. 0. 0. 0. 0. 0. 0. 0. 0. 0. 0. 0. 0. 0. 0. 0. 0. 0. 0. 0. 0. 0. 0. 0. 0. 0. 0. 0. 0. 0. 0. 0. 0. 0. 0. 0. 0. 0. 0. 0. 0. 0. 0. 0. 0. 0. 0. 0. 0. 0. 0. 0. 0. 0. 0. 0. 0. 0. 0. 0. 0. 0. 0. 0. 0. 0. 0. 0. 0. 0. 0. 0. 0. 0. 0. 0. 2289. 2289. 2289. 2289. 0. 0. 0. 0. 0. 0. 0. 0. 0. 0. 0. 0. 0. 0. 0. 0. 0. 0. 0. 0. 0. 0. 0. 0. 0. 0. 0. 0. 0. 0. 0. 0. 0. 0. 0. 0. 0. 0. 0. 0.
    0. 0. 0. 0. 0. 0. 0. 0. 2505. 2523. 2523. 2523. 2542. 2560. 2560. 2580. 2560. 2560. 2580. 2580. 2580. 2580. 2599. 2619. 2619. 2619. 2619. 2639. 2639. 2639. 2639. 2659. 2659. 2659. 2659. 2659. 2659. 2680. 2680. 2701. 2701. 2701. 2722. 2722. 2722. 2743. 2743. 2743. 2743. 2743. 2743. 2743. 2743. 2765. 2765. 2788. 2788. 2788. 2810. 2810. 2810. 2810. 2834. 2834. 2857. 2881. 2881. 2881. 2881. 2881. 2905. 2905. 2905. 2905. 2905. 2905. 2930. 2930. 2930. 2955. 2980. 2980. 2980. 2955. 2980. 2980. 2980. 2980. 2980. 3006. 3006. 3006. 3006. 3033. 3033. 3033. 3059. 3059. 3059. 3059. 3087. 3087. 3087. 3087. 3115. 3115. 3143. 3143. 3143. 3143. 3172. 3172. 3172. 3172. 3172. 3201. 3201. 3172. 3172. 3143. 3143. 3115. 3115. 3087. 3087. 3087. 3059. 3059. 3059. 3059. 3059. 3059. 3059. 3059. 3059. 3059. 3059. 3059. 3059. 3059. 3033. 3059. 3059. 3059. 3059. 3059. 3059. 3059. 3087. 3087. 3087. 3059. 3059. 3059. 3087. 3087. 3087. 3087. 3087. 3115. 3115. 3115. 3115. 3115. 3115. 3115. 3143. 3143. 3143. 3143. 3143. 3172. 3201. 3201. 3231. 3262. 3262. 3293. 3324. 3357. 3390. 3423. 3458. 3493. 3458. 3458. 3458. 3493. 3493. 3528. 3565. 3565. 3602. 3602. 3602. 3602. 3640. 3640. 3640. 3679. 3679. 3679. 3679. 2810. 2810. 2810. 2810. 2810. 2810. 2810. 2810. 2810. 2810. 2810. 2810. 2810. 2834. 2834. 2810. 2810. 2810. 2834. 2810. 2810. 2810. 2810. 2834. 2834. 2834. 2834. 2834. 2834. 2857. 2857. 2857. 2881. 2905. 2955. 2955. 2955. 2980. 2980. 2980. 2980. 3006. 3006. 2980. 2980. 2980. 2980. 3006. 3006. 2980. 2980. 2980. 2980. 2980. 2980. 2980. 3006. 3006. 3033. 3033. 3033. 3033. 3059. 0. 0. 0. 0. 0. 0. 0. 0. 0. 0. 0. 0. 0. 0. 0. 0. 0. 0. 0. 0. 0. 0. 0. 0. 0. 0. 0. 0. 0. 0. 0. 0. 0. 0. 0. 0. 0. 0. 0. 0. 0. 0. 0. 0. 0. 0. 0. 0. 0. 0. 0. 0. 0. 0. 0. 0. 0. 0. 0. 0. 0. 0. 0. 0. 0. 0. 0. 0. 0. 0. 0. 0. 0. 0. 0. 0. 0. 0. 0. 0. 0. 0. 0. 0. 0. 0. 0. 0. 0. 0. 0. 0. 0. 0. 0. 0. 0. 0. 0. 0. 0. 0. 0. 0. 0. 0. 0. 0. 0. 0. 0. 0. 0. 0. 0. 0. 0. 0. 0. 0. 0. 0. 0. 0. 0. 0. 0. 0. 0. 0. 2120. 2120. 2120. 2120. 2133. 2133. 2133. 2120. 2120. 2120. 2107. 2107. 2107. 2107. 2107. 2107. 2107. 2107. 2107. 2107. 2120. 2120. 2107. 2107. 2095. 2107. 0. 0. 2082. 2082. 0. 0. 0. 0. 0. 0. 0. 0. 0. 0. 0. 0. 0. 0. 0. 0. 0. 0. 0. 0. 0. 0. 0. 0. 0. 0. 0. 0. 0. 0. 0. 0. 0. 0. 0. 0. 0. 0. 0. 0. 0. 0. 0. 0. 0. 0. 0. 0. 0. 0. 0. 0. 0. 0. 0. 0. 0. 0. 0. 0. 0. 0. 0. 0. 0. 0. 0. 0. 0. 0. 0. 0. 0. 0. 0. 0. 0. 0. 0. 0. 0. 0. 0. 0. 0. 0. 0. 0. 0. 0. 0. 0. 0. 0. 0. 0. 0. 0. 0. 0. 0. 0. 0. 0. 0. 0. 0. 0. 0. 0. 0. 0. 0. 0. 0. 0. 0. 0. 0. 0. 0. 0. 0. 0. 0. 0. 0. 0. 0. 0. 0. 0. 0. 0. 0. 0. 0. 0. 0. 0. 0. 0. 0. 0. 0. 0. 0. 0. 0. 0. 0. 0. 0. 0. 0. 0. 0. 0. 0. 0. 0. 0. 0. 0. 0. 0. 0. 0. 0. 0. 0. 0. 0. 0. 0. 0. 0. 0. 0. 0. 0. 0. 0. 0. 0. 0. 0. 0. 0. 0. 0. 0. 0. 0. 0. 0. 0. 0. 0. 0. 0. 0. 0. 0. 0. 0. 0. 0. 0. 0. 0. 0. 0. 0.
    0. 0. 0. 0. 0. 0. 0. 0. 2505. 2523. 2523. 2542. 2542. 2560. 2560. 2580. 2560. 2560. 2560. 2560. 2580. 2580. 2599. 2619. 2619. 2619. 2619. 2639. 2639. 2639. 2639. 2659. 2659. 2659. 2659. 2659. 2659. 2680. 2680. 2701. 2701. 2722. 2722. 2722. 2722. 2722. 2743. 2743. 2743. 2765. 2743. 2743. 2765. 2765. 2788. 2788. 2788. 2788. 2788. 2810. 2810. 2810. 2834. 2857. 2857. 2881. 2881. 2881. 2881. 2881. 2905. 2905. 2905. 2905. 2905. 2930. 2930. 2955. 2955. 2955. 2980. 2980. 2980. 2955. 2955. 2955. 2980. 2980. 2980. 3006. 3006. 3006. 3006. 3006. 3033. 3033. 3033. 3059. 3059. 3059. 3087. 3087. 3087. 3115. 3115. 3143. 3143. 3143. 3143. 3143. 3172. 3172. 3172. 3172. 3201. 3201. 3201. 3172. 3172. 3143. 3143. 3143. 3115. 3087. 3087. 3087. 3059. 3059. 3059. 3059. 3059. 3059. 3059. 3059. 3059. 3059. 3059. 3059. 3059. 3059. 3059. 3059. 3059. 3059. 3059. 3059. 3059. 3059. 3059. 3087. 3087. 3059. 3059. 3059. 3087. 3087. 3087. 3087. 3087. 3087. 3087. 3087. 3115. 3115. 3115. 3115. 3143. 3143. 3143. 3143. 3172. 3172. 3201. 3201. 3231. 3262. 3262. 3293. 3324. 3390. 3390. 3423. 3458. 3493. 3458. 3458. 3458. 3493. 3493. 3528. 3602. 3602. 3602. 3602. 3602. 3602. 3640. 3640. 3640. 3640. 3640. 3679. 3679. 3679. 2834. 2834. 2834. 2834. 2834. 2834. 2834. 2834. 2834. 2834. 2834. 2834. 2834. 2857. 2810. 2810. 2810. 2834. 2810. 2834. 2834. 2834. 2834. 2834. 2834. 2834. 2834. 2857. 2834. 2857. 2857. 2881. 2930. 2955. 2955. 2980. 2980. 2980. 2980. 3006. 3006. 3006. 3006. 3006. 3006. 3006. 3006. 3006. 2980. 2980. 2980. 2980. 3006. 3006. 3006. 3006. 3033. 3033. 3033. 3033. 3059. 3059. 0. 0. 0. 0. 0. 0. 0. 0. 0. 0. 0. 0. 0. 0. 0. 0. 0. 0. 0. 0. 0. 0. 0. 0. 0. 0. 0. 0. 0. 0. 0. 0. 0. 0. 0. 0. 0. 0. 0. 0. 0. 0. 0. 0. 0. 0. 0. 0. 0. 0. 0. 0. 0. 0. 0. 0. 0. 0. 0. 0. 0. 0. 0. 0. 0. 0. 0. 0. 0. 0. 0. 0. 0. 0. 0. 0. 0. 0. 0. 0. 0. 0. 0. 0. 0. 0. 0. 0. 0. 0. 0. 0. 0. 0. 0. 0. 0. 0. 0. 0. 0. 0. 0. 0. 0. 0. 0. 0. 0. 0. 0. 0. 0. 0. 0. 0. 0. 0. 0. 0. 0. 0. 0. 0. 0. 0. 0. 0. 0. 0. 2120. 2120. 2120. 2120. 2120. 2120. 2133. 2107. 2107. 2107. 2107. 2107. 2095. 2095. 2095. 2095. 2095. 2095. 2095. 2107. 2107. 2107. 2107. 2107. 2095. 2095. 2082. 2082. 2082. 2082. 2082. 0. 0. 0. 0. 0. 0. 0. 0. 0. 0. 0. 0. 0. 0. 0. 0. 0. 0. 0. 0. 0. 0. 0. 0. 0. 0. 0. 0. 0. 0. 0. 0. 0. 0. 0. 0. 0. 0. 0. 0. 0. 0. 0. 0. 0. 0. 0. 0. 0. 0. 0. 0. 0. 0. 0. 0. 0. 0. 0. 0. 0. 0. 0. 0. 0. 0. 0. 0. 0. 0. 0. 0. 0. 0. 0. 0. 0. 0. 0. 0. 0. 0. 0. 0. 0. 0. 0. 0. 0. 0. 0. 0. 0. 0. 0. 0. 0. 0. 0. 0. 0. 0. 0. 0. 0. 0. 0. 0. 0. 0. 0. 0. 0. 0. 0. 0. 0. 0. 0. 0. 0. 0. 0. 0. 0. 0. 0. 0. 0. 0. 0. 0. 0. 0. 0. 0. 0. 0. 0. 0. 0. 0. 0. 0. 0. 0. 0. 0. 0. 0. 0. 0. 0. 0. 0. 0. 0. 0. 0. 0. 0. 0. 0. 0. 0. 0. 0. 0. 0. 0. 0. 0. 0. 0. 0. 0. 0. 0. 0. 0. 0. 0. 0. 0. 0. 0. 0. 0. 0. 0. 0. 0. 0. 0. 0. 0. 0. 0. 0. 0. 0. 0. 0. 0. 0. 0. 0. 0. 0. 0. 0. 0. 0.
    0. 0. 0. 0. 0. 0. 0. 0. 2505. 2523. 2523. 2542. 2542. 2560. 2560. 2580. 2560. 2560. 2560. 2580. 2580. 2580. 2599. 2599. 2599. 2599. 2619. 2619. 2639. 2639. 2639. 2639. 2659. 2659. 2680. 2680. 2680. 2701. 2680. 2722. 2701. 2722. 2722. 2722. 2722. 2722. 2743. 2743. 2743. 2743. 2743. 2743. 2765. 2765. 2788. 2788. 2788. 2788. 2788. 2810. 2810. 2810. 2834. 2857. 2857. 2881. 2881. 2881. 2881. 2881. 2905. 2905. 2905. 2905. 2905. 2905. 2905. 2930. 2930. 2955. 2955. 2955. 2955. 2955. 2955. 2955. 2980. 2980. 2980. 3006. 2980. 3006. 3006. 3006. 3033. 3033. 3033. 3059. 3059. 3059. 3087. 3087. 3087. 3115. 3143. 3143. 3143. 3143. 3143. 3143. 3143. 3143. 3172. 3172. 3172. 3201. 3201. 3172. 3172. 3143. 3143. 3143. 3115. 3087. 3087. 3087. 3059. 3059. 3059. 3059. 3059. 3059. 3059. 3059. 3059. 3059. 3059. 3059. 3059. 3059. 3059. 3059. 3059. 3059. 3059. 3059. 3059. 3059. 3059. 3059. 3087. 3059. 3059. 3059. 3087. 3087. 3087. 3087. 3087. 3087. 3087. 3087. 3115. 3115. 3115. 3143. 3143. 3143. 3143. 3143. 3172. 3201. 3201. 3231. 3231. 3262. 3293. 3293. 3357. 3390. 3390. 3423. 3458. 3493. 3458. 3458. 3458. 3493. 3528. 3528. 3565. 3602. 3602. 3602. 3602. 3640. 3640. 3640. 3640. 3640. 3640. 3640. 3640. 3679. 2881. 2857. 2857. 2857. 2857. 2857. 2834. 2857. 2857. 2857. 2857. 2834. 2857. 2857. 2810. 2810. 2810. 2810. 2810. 2834. 2834. 2834. 2834. 2834. 2834. 2834. 2834. 2834. 2834. 2857. 2857. 2881. 2905. 2955. 2955. 2980. 2980. 2980. 2980. 3006. 3006. 3006. 3006. 3006. 3006. 3006. 3006. 3006. 2980. 2980. 2980. 2980. 2980. 3006. 3006. 3006. 3006. 3033. 3033. 3059. 3059. 3059. 0. 0. 0. 0. 0. 0. 0. 0. 0. 0. 0. 0. 0. 0. 0. 0. 0. 0. 0. 0. 0. 0. 0. 0. 0. 0. 0. 0. 0. 0. 0. 0. 0. 0. 0. 0. 0. 0. 0. 0. 0. 0. 0. 0. 0. 0. 0. 0. 0. 0. 0. 0. 0. 0. 0. 0. 0. 0. 0. 0. 0. 0. 0. 0. 0. 0. 0. 0. 0. 0. 0. 0. 0. 0. 0. 0. 0. 0. 0. 0. 0. 0. 0. 0. 0. 0. 0. 0. 0. 0. 0. 0. 0. 0. 0. 0. 0. 0. 0. 0. 0. 0. 0. 0. 0. 0. 0. 0. 0. 0. 0. 0. 0. 0. 0. 0. 0. 0. 0. 0. 0. 0. 0. 0. 0. 0. 2120. 2120. 2133. 2133. 2120. 2120. 2120. 2120. 2133. 2120. 2107. 2107. 2107. 2095. 2095. 2095. 2082. 2095. 2095. 2095. 2095. 2095. 2095. 2095. 2095. 2095. 2095. 2095. 2082. 2082. 2082. 2082. 2082. 2082. 2082. 2082. 0. 0. 0. 0. 0. 0. 0. 0. 0. 0. 0. 0. 0. 0. 0. 0. 0. 0. 0. 0. 0. 0. 0. 0. 0. 0. 0. 0. 0. 0. 0. 0. 0. 0. 0. 0. 0. 0. 0. 0. 0. 0. 0. 0. 0. 0. 0. 0. 0. 0. 0. 0. 0. 0. 0. 0. 0. 0. 0. 0. 0. 0. 0. 0. 0. 0. 0. 0. 0. 0. 0. 0. 0. 0. 0. 0. 0. 0. 0. 0. 0. 0. 0. 0. 0. 0. 0. 0. 0. 0. 0. 0. 0. 0. 0. 0. 0. 0. 0. 0. 0. 0. 0. 0. 0. 0. 0. 0. 0. 0. 0. 0. 0. 0. 0. 0. 0. 0. 0. 0. 0. 0. 0. 0. 0. 0. 0. 0. 0. 0. 0. 0. 0. 0. 0. 0. 0. 0. 0. 0. 0. 0. 0. 0. 0. 0. 0. 0. 0. 0. 0. 0. 0. 0. 0. 0. 0. 0. 0. 0. 0. 0. 0. 0. 0. 0. 0. 0. 0. 0. 0. 0. 0. 0. 0. 0. 0. 0. 0. 0. 0. 0. 0. 0. 0. 0. 0. 0. 0. 0. 0. 0. 0. 0. 0. 0. 0. 0. 0. 0. 0. 0. 0. 0. 0. 0. 0. 0. 0. 0. 0. 0.
    0. 0. 0. 0. 0. 0. 0. 0. 2505. 2505. 2523. 2542. 2542. 2560. 2560. 2580. 2560. 2560. 2560. 2560. 2580. 2580. 2580. 2580. 2599. 2599. 2599. 2619. 2619. 2639. 2639. 2659. 2659. 2659. 2680. 2680. 2680. 2701. 2701. 2722. 2701. 2722. 2722. 2722. 2722. 2722. 2722. 2722. 2743. 2743. 2743. 2743. 2765. 2765. 2788. 2788. 2788. 2788. 2788. 2810. 2810. 2810. 2834. 2834. 2857. 2857. 2881. 2881. 2881. 2881. 2905. 2905. 2905. 2905. 2905. 2905. 2905. 2930. 2930. 2955. 2955. 2955. 2955. 2955. 2955. 2980. 2980. 2980. 2980. 3006. 3006. 3006. 3006. 3033. 3033. 3033. 3033. 3059. 3059. 3059. 3087. 3087. 3087. 3115. 3115. 3143. 3143. 3143. 3143. 3143. 3143. 3143. 3172. 3172. 3172. 3201. 3201. 3172. 3172. 3172. 3143. 3143. 3143. 3087. 3087. 3087. 3059. 3087. 3087. 3059. 3059. 3059. 3059. 3059. 3059. 3059. 3059. 3059. 3059. 3059. 3059. 3059. 3033. 3033. 3059. 3059. 3059. 3059. 3059. 3059. 3087. 3059. 3059. 3059. 3087. 3087. 3087. 3087. 3087. 3087. 3115. 3087. 3115. 3115. 3115. 3143. 3143. 3143. 3143. 3172. 3172. 3201. 3201. 3231. 3231. 3262. 3262. 3293. 3357. 3390. 3423. 3458. 3493. 3493. 3458. 3458. 3458. 3493. 3528. 3565. 3565. 3602. 3602. 3602. 3602. 3602. 3602. 3640. 3640. 3640. 3640. 3640. 3640. 2881. 2881. 2881. 2881. 2857. 2857. 2857. 2834. 2857. 2834. 2857. 2857. 2857. 2857. 2857. 2834. 2810. 2834. 2834. 2834. 2834. 2834. 2834. 2834. 2834. 2834. 2834. 2834. 2857. 2857. 2857. 2881. 2881. 2930. 2955. 2980. 2980. 3006. 3006. 3006. 3006. 3006. 3006. 3006. 3006. 2980. 2980. 3006. 3006. 2980. 2980. 2980. 2980. 2980. 3006. 3006. 3006. 3006. 3033. 3033. 3033. 3033. 0. 0. 0. 0. 0. 0. 0. 0. 0. 0. 0. 0. 0. 0. 0. 0. 0. 0. 0. 0. 0. 0. 0. 0. 0. 0. 0. 0. 0. 0. 0. 0. 0. 0. 0. 0. 0. 0. 0. 0. 0. 0. 0. 0. 0. 0. 0. 0. 0. 0. 0. 0. 0. 0. 0. 0. 0. 0. 0. 0. 0. 0. 0. 0. 0. 0. 0. 0. 0. 0. 0. 0. 0. 0. 0. 0. 0. 0. 0. 0. 0. 0. 0. 0. 0. 0. 0. 0. 0. 0. 0. 0. 0. 0. 0. 0. 0. 0. 0. 0. 0. 0. 0. 0. 0. 0. 0. 0. 0. 0. 0. 0. 0. 0. 0. 0. 0. 0. 0. 0. 0. 0. 0. 0. 0. 0. 0. 2133. 2133. 2133. 2133. 2120. 2133. 2120. 2120. 2133. 2120. 2107. 2107. 2107. 2095. 2095. 2095. 2082. 2082. 2082. 2082. 2082. 2082. 2095. 2095. 2095. 2095. 2095. 2095. 2082. 2082. 2082. 2082. 2069. 2069. 2082. 2082. 2082. 0. 0. 0. 0. 0. 0. 0. 0. 0. 0. 0. 0. 0. 0. 0. 0. 0. 0. 0. 0. 0. 0. 0. 0. 0. 0. 0. 0. 0. 0. 0. 0. 0. 0. 0. 0. 0. 0. 0. 0. 0. 0. 0. 0. 0. 0. 0. 0. 0. 0. 0. 0. 0. 0. 0. 0. 0. 0. 0. 0. 0. 0. 0. 0. 0. 0. 0. 0. 0. 0. 0. 0. 0. 0. 0. 0. 0. 0. 0. 0. 0. 0. 0. 0. 0. 0. 0. 0. 0. 0. 0. 0. 0. 0. 0. 0. 0. 0. 0. 0. 0. 0. 0. 0. 0. 0. 0. 0. 0. 0. 0. 0. 0. 0. 0. 0. 0. 0. 0. 0. 0. 0. 0. 0. 0. 0. 0. 0. 0. 0. 0. 0. 0. 0. 0. 0. 0. 0. 0. 0. 0. 0. 0. 0. 0. 0. 0. 0. 0. 0. 0. 0. 0. 0. 0. 0. 0. 0. 0. 0. 0. 0. 0. 0. 0. 0. 0. 0. 0. 0. 0. 0. 0. 0. 0. 0. 0. 0. 0. 0. 0. 0. 0. 0. 0. 0. 0. 0. 0. 0. 0. 0. 0. 0. 0. 0. 0. 0. 0. 0. 0. 0. 0. 0. 0. 0. 0. 0. 0. 0. 0.
    0. 0. 0. 0. 0. 0. 0. 0. 2505. 2505. 2523. 2523. 2542. 2560. 2560. 2580. 2560. 2560. 2560. 2580. 2580. 2580. 2580. 2580. 2599. 2599. 2599. 2619. 2639. 2639. 2659. 2659. 2659. 2680. 2680. 2701. 2701. 2701. 2701. 2722. 2701. 2722. 2722. 2722. 2722. 2722. 2722. 2722. 2743. 2743. 2743. 2743. 2722. 2765. 2788. 2788. 2788. 2788. 2788. 2810. 2810. 2810. 2810. 2834. 2857. 2857. 2881. 2881. 2881. 2881. 2905. 2905. 2905. 2905. 2905. 2930. 2930. 2955. 2955. 2955. 2955. 2955. 2980. 2955. 2980. 2980. 2980. 2980. 2980. 3006. 3006. 2980. 3006. 3033. 3033. 3033. 3033. 3059. 3059. 3059. 3087. 3087. 3115. 3115. 3115. 3143. 3143. 3143. 3143. 3143. 3143. 3143. 3172. 3172. 3172. 3201. 3201. 3172. 3172. 3172. 3143. 3143. 3143. 3115. 3087. 3087. 3087. 3087. 3087. 3087. 3059. 3059. 3059. 3059. 3059. 3059. 3059. 3059. 3059. 3059. 3059. 3059. 3059. 3059. 3059. 3059. 3059. 3059. 3059. 3059. 3059. 3033. 3033. 3059. 3059. 3059. 3087. 3087. 3087. 3087. 3087. 3087. 3115. 3115. 3115. 3143. 3143. 3143. 3143. 3172. 3172. 3201. 3201. 3231. 3231. 3262. 3293. 3293. 3357. 3390. 3423. 3458. 3493. 3493. 3458. 3458. 3458. 3493. 3528. 3528. 3565. 3565. 3602. 3602. 3602. 3602. 3602. 3602. 3640. 3640. 3640. 3640. 3640. 3640. 2881. 2881. 2881. 2881. 2857. 2857. 2857. 2834. 2834. 2857. 2857. 2857. 2857. 2857. 2810. 2810. 2810. 2810. 2810. 2834. 2834. 2834. 2834. 2834. 2834. 2834. 2834. 2834. 2834. 2857. 2881. 2881. 2930. 2955. 2980. 2980. 3006. 3006. 3006. 3006. 3006. 3006. 3006. 3006. 3006. 3006. 3006. 3006. 2980. 3006. 3006. 3006. 3006. 3006. 3006. 3033. 3033. 3033. 3033. 3033. 3033. 3033. 0. 0. 0. 0. 0. 0. 0. 0. 0. 0. 0. 0. 0. 0. 0. 0. 0. 0. 0. 0. 0. 0. 0. 0. 0. 0. 0. 0. 0. 0. 0. 0. 0. 0. 0. 0. 0. 0. 0. 0. 0. 0. 0. 0. 0. 0. 0. 0. 0. 0. 0. 0. 0. 0. 0. 0. 0. 0. 0. 0. 0. 0. 0. 0. 0. 0. 0. 0. 0. 0. 0. 0. 0. 0. 0. 0. 0. 0. 0. 0. 0. 0. 0. 0. 0. 0. 0. 0. 0. 0. 0. 0. 0. 0. 0. 0. 0. 0. 0. 0. 0. 0. 0. 0. 0. 0. 0. 0. 0. 0. 0. 0. 0. 0. 0. 0. 0. 0. 0. 0. 0. 0. 0. 0. 0. 0. 2133. 0. 0. 0. 2133. 2133. 2120. 2107. 2120. 2107. 2107. 2095. 2095. 2095. 2082. 2082. 2082. 2082. 2082. 2082. 2082. 2082. 2082. 2082. 2082. 2082. 2082. 2082. 2069. 2069. 2069. 2069. 2069. 2069. 2069. 2069. 2069. 2082. 0. 0. 0. 0. 0. 0. 0. 0. 0. 0. 0. 0. 0. 0. 0. 0. 0. 0. 0. 0. 0. 0. 0. 0. 0. 0. 0. 0. 0. 0. 0. 0. 0. 0. 0. 0. 0. 0. 0. 0. 0. 0. 0. 0. 0. 0. 0. 0. 0. 0. 0. 0. 0. 0. 0. 0. 0. 0. 0. 0. 0. 0. 0. 0. 0. 0. 0. 0. 0. 0. 0. 0. 0. 0. 0. 0. 0. 0. 0. 0. 0. 0. 0. 0. 0. 0. 0. 0. 0. 0. 0. 0. 0. 0. 0. 0. 0. 0. 0. 0. 0. 0. 0. 0. 0. 0. 0. 0. 0. 0. 0. 0. 0. 0. 0. 0. 0. 0. 0. 0. 0. 0. 0. 0. 0. 0. 0. 0. 0. 0. 0. 0. 0. 0. 0. 0. 0. 0. 0. 0. 0. 0. 0. 0. 0. 0. 0. 0. 0. 0. 0. 0. 0. 0. 0. 0. 0. 0. 0. 0. 0. 0. 0. 0. 0. 0. 0. 0. 0. 0. 0. 0. 0. 0. 0. 0. 0. 0. 0. 0. 0. 0. 0. 0. 0. 0. 0. 0. 0. 0. 0. 0. 0. 0. 0. 0. 0. 0. 0. 0. 0. 0. 0. 0. 0. 0. 0. 0. 0. 0.
    0. 0. 0. 0. 0. 0. 0. 0. 2505. 2505. 2523. 2523. 2523. 2542. 2542. 2560. 2560. 2560. 2560. 2580. 2580. 2580. 2580. 2580. 2599. 2599. 2599. 2619. 2619. 2639. 2639. 2659. 2659. 2659. 2680. 2701. 2701. 2701. 2701. 2722. 2722. 2722. 2722. 2722. 2722. 2722. 2722. 2722. 2743. 2743. 2722. 2743. 2722. 2765. 2765. 2788. 2788. 2810. 2810. 2810. 2810. 2810. 2834. 2857. 2857. 2857. 2881. 2881. 2881. 2881. 2905. 2905. 2905. 2905. 2905. 2930. 2930. 2955. 2955. 2955. 2955. 2955. 2980. 2955. 2980. 2980. 2980. 2980. 2980. 3006. 3006. 3006. 3006. 3033. 3033. 3033. 3059. 3059. 3059. 3059. 3087. 3087. 3115. 3115. 3115. 3143. 3143. 3143. 3172. 3143. 3172. 3172. 3172. 3172. 3172. 3201. 3201. 3172. 3172. 3172. 3172. 3143. 3143. 3115. 3087. 3087. 3087. 3087. 3087. 3087. 3059. 3059. 3059. 3059. 3059. 3059. 3059. 3059. 3059. 3059. 3059. 3059. 3059. 3059. 3059. 3059. 3059. 3059. 3059. 3059. 3059. 3033. 3033. 3059. 3059. 3059. 3087. 3087. 3087. 3087. 3115. 3087. 3115. 3115. 3115. 3143. 3143. 3143. 3143. 3143. 3172. 3201. 3201. 3231. 3231. 3262. 3293. 3293. 3357. 3390. 3423. 3458. 3493. 3493. 3458. 3458. 3458. 3493. 3493. 3528. 3565. 3565. 3602. 3602. 3602. 3602. 3602. 3602. 3602. 3640. 3640. 3640. 3640. 3640. 2881. 2881. 2881. 2881. 2857. 2857. 2834. 2834. 2834. 2834. 2857. 2834. 2857. 2857. 2810. 2810. 2810. 2810. 2810. 2834. 2834. 2834. 2834. 2834. 2834. 2834. 2857. 2834. 2857. 2857. 2881. 2881. 2930. 2955. 2980. 3006. 3006. 3033. 3006. 3006. 3006. 3006. 3006. 3006. 3006. 3006. 3006. 3006. 2980. 3006. 3006. 3006. 3006. 3006. 3033. 3033. 3033. 3033. 3033. 3033. 3033. 0. 0. 0. 0. 0. 0. 0. 0. 0. 0. 0. 0. 0. 0. 0. 0. 0. 0. 0. 0. 0. 0. 0. 0. 0. 0. 0. 0. 0. 0. 0. 0. 0. 0. 0. 0. 0. 0. 0. 0. 0. 0. 0. 0. 0. 0. 0. 0. 0. 0. 0. 0. 0. 0. 0. 0. 0. 0. 0. 0. 0. 0. 0. 0. 0. 0. 0. 0. 0. 0. 0. 0. 0. 0. 0. 0. 0. 0. 0. 0. 0. 0. 0. 0. 0. 0. 0. 0. 0. 0. 0. 0. 0. 0. 0. 0. 0. 0. 0. 0. 0. 0. 0. 0. 0. 0. 0. 0. 0. 0. 0. 0. 0. 0. 0. 0. 0. 0. 0. 0. 0. 0. 0. 0. 0. 0. 0. 0. 0. 0. 0. 0. 0. 0. 2095. 2107. 2095. 2095. 2095. 2095. 2095. 2082. 2095. 2082. 2082. 2082. 2082. 2082. 2082. 2082. 2082. 2082. 2069. 2069. 2069. 2057. 2057. 2057. 2069. 2069. 2069. 2069. 2069. 2069. 2069. 2069. 0. 0. 0. 0. 0. 0. 0. 0. 0. 0. 0. 0. 0. 0. 0. 0. 0. 0. 0. 0. 0. 0. 0. 0. 0. 0. 0. 0. 0. 0. 0. 0. 0. 0. 0. 0. 0. 0. 0. 0. 0. 0. 0. 0. 0. 0. 0. 0. 0. 0. 0. 0. 0. 0. 0. 0. 0. 0. 0. 0. 0. 0. 0. 0. 0. 0. 0. 0. 0. 0. 0. 0. 0. 0. 0. 0. 0. 0. 0. 0. 0. 0. 0. 0. 0. 0. 0. 0. 0. 0. 0. 0. 0. 0. 0. 0. 0. 0. 0. 0. 0. 0. 0. 0. 0. 0. 0. 0. 0. 0. 0. 0. 0. 0. 0. 0. 0. 0. 0. 0. 0. 0. 0. 0. 0. 0. 0. 0. 1571. 1571. 0. 0. 0. 0. 0. 0. 0. 0. 0. 0. 0. 0. 0. 0. 0. 0. 0. 0. 0. 0. 0. 0. 0. 0. 0. 0. 0. 0. 0. 0. 0. 0. 0. 0. 0. 0. 0. 0. 0. 0. 0. 0. 0. 0. 0. 0. 0. 0. 0. 0. 0. 0. 0. 0. 0. 0. 0. 0. 0. 0. 0. 0. 0. 0. 0. 0. 0. 0. 0. 0. 0. 0. 0. 0. 0. 0. 0. 0. 0.
    0. 0. 0. 0. 0. 0. 0. 0. 2505. 2505. 2523. 2523. 2542. 2560. 2560. 2560. 2560. 2560. 2560. 2580. 2580. 2580. 2580. 2580. 2599. 2599. 2599. 2619. 2619. 2639. 2639. 2639. 2659. 2659. 2680. 2701. 2701. 2722. 2722. 2722. 2722. 2722. 2722. 2722. 2722. 2722. 2722. 2722. 2743. 2743. 2743. 2743. 2722. 2743. 2765. 2788. 2788. 2788. 2788. 2810. 2810. 2810. 2834. 2857. 2857. 2857. 2857. 2881. 2881. 2881. 2905. 2905. 2905. 2905. 2905. 2905. 2905. 2930. 2930. 2955. 2955. 2955. 2980. 2955. 2980. 2980. 2980. 2980. 3006. 3006. 3006. 3033. 3033. 3033. 3033. 3059. 3059. 3059. 3059. 3087. 3087. 3087. 3115. 3115. 3143. 3143. 3143. 3143. 3172. 3172. 3172. 3172. 3172. 3172. 3172. 3172. 3201. 3172. 3172. 3172. 3143. 3143. 3143. 3115. 3115. 3087. 3087. 3087. 3087. 3087. 3087. 3059. 3059. 3059. 3059. 3059. 3059. 3059. 3059. 3059. 3059. 3059. 3059. 3059. 3059. 3059. 3059. 3059. 3059. 3059. 3059. 3033. 3033. 3059. 3059. 3059. 3059. 3087. 3087. 3087. 3087. 3087. 3087. 3115. 3115. 3115. 3143. 3143. 3143. 3143. 3172. 3172. 3201. 3231. 3231. 3262. 3293. 3324. 3357. 3390. 3423. 3458. 3493. 3493. 3458. 3458. 3458. 3493. 3493. 3528. 3528. 3565. 3565. 3602. 3602. 3602. 3602. 3602. 3602. 3640. 3640. 3640. 3640. 3640. 2881. 2881. 2881. 2881. 2857. 2834. 2834. 2834. 2834. 2834. 2834. 2834. 2834. 2834. 2810. 2810. 2810. 2810. 2810. 2834. 2834. 2834. 2834. 2834. 2857. 2857. 2857. 2857. 2857. 2857. 2881. 2881. 2930. 2955. 2980. 2980. 2980. 3033. 3033. 3033. 3033. 3033. 3033. 3006. 3006. 3006. 3033. 3033. 3006. 3006. 3006. 3006. 3033. 3033. 3033. 3006. 3033. 3033. 3033. 3033. 3033. 0. 0. 0. 0. 0. 0. 0. 0. 0. 0. 0. 0. 0. 0. 0. 0. 0. 0. 0. 0. 0. 0. 0. 0. 0. 0. 0. 0. 0. 0. 0. 0. 0. 0. 0. 0. 0. 0. 0. 0. 0. 0. 0. 0. 0. 0. 0. 0. 0. 0. 0. 0. 0. 0. 0. 0. 0. 0. 0. 0. 0. 0. 0. 0. 0. 0. 0. 0. 0. 0. 0. 0. 0. 0. 0. 0. 0. 0. 0. 0. 0. 0. 0. 0. 0. 0. 0. 0. 0. 0. 0. 0. 0. 0. 0. 0. 0. 0. 0. 0. 0. 0. 0. 0. 0. 0. 0. 0. 0. 0. 0. 0. 0. 0. 0. 0. 0. 0. 0. 0. 0. 0. 0. 0. 0. 0. 0. 0. 0. 0. 0. 0. 0. 0. 0. 0. 0. 2095. 2095. 2095. 2095. 2082. 2095. 2095. 2082. 2082. 2082. 2082. 2082. 2082. 2082. 2082. 2069. 2057. 2057. 2057. 2045. 2045. 2057. 2057. 2057. 2069. 2069. 2069. 2069. 2082. 2082. 0. 0. 0. 0. 0. 0. 0. 0. 0. 0. 0. 0. 0. 0. 0. 0. 0. 0. 0. 0. 0. 0. 0. 0. 0. 0. 0. 0. 0. 0. 0. 0. 0. 0. 0. 0. 0. 0. 0. 0. 0. 0. 0. 0. 0. 0. 0. 0. 0. 0. 0. 0. 0. 0. 0. 0. 0. 0. 0. 0. 0. 0. 0. 0. 0. 0. 0. 0. 0. 0. 0. 0. 0. 0. 0. 0. 0. 0. 0. 0. 0. 0. 0. 0. 0. 0. 0. 0. 0. 0. 0. 0. 0. 0. 0. 0. 0. 0. 0. 0. 0. 0. 0. 0. 0. 0. 0. 0. 0. 0. 0. 0. 0. 0. 0. 0. 0. 0. 0. 0. 0. 0. 1585. 1578. 1578. 1578. 1571. 1578. 1578. 0. 0. 0. 0. 0. 0. 0. 0. 0. 0. 0. 0. 0. 0. 0. 1578. 0. 0. 0. 0. 0. 0. 0. 0. 0. 0. 0. 0. 0. 0. 0. 0. 0. 0. 0. 0. 0. 0. 0. 0. 0. 0. 0. 0. 0. 0. 0. 0. 0. 0. 0. 0. 1529. 0. 1502. 0. 0. 0. 0. 0. 0. 0. 0. 0. 0. 0. 0. 0. 0. 0. 0. 0. 0. 0. 0. 0. 0. 0. 0.
    0. 0. 0. 0. 0. 0. 0. 0. 2505. 2505. 2523. 2523. 2542. 2560. 2560. 2560. 2560. 2560. 2560. 2580. 2580. 2580. 2580. 2580. 2599. 2599. 2599. 2619. 2619. 2639. 2639. 2639. 2659. 2659. 2680. 2701. 2701. 2701. 2701. 2722. 2722. 2722. 2722. 2722. 2722. 2722. 2722. 2743. 2743. 2743. 2722. 2722. 2722. 2765. 2765. 2788. 2788. 2788. 2810. 2810. 2810. 2810. 2810. 2834. 2857. 2857. 2881. 2881. 2881. 2881. 2905. 2905. 2905. 2905. 2905. 2905. 2905. 2930. 2930. 2955. 2955. 2955. 2980. 2955. 2980. 2980. 2980. 2980. 3006. 3006. 3006. 3033. 3033. 3033. 3033. 3059. 3059. 3059. 3059. 3087. 3087. 3087. 3087. 3115. 3115. 3143. 3143. 3172. 3172. 3172. 3172. 3172. 3172. 3172. 3172. 3201. 3201. 3172. 3172. 3172. 3172. 3143. 3143. 3087. 3115. 3087. 3059. 3087. 3087. 3087. 3087. 3059. 3059. 3059. 3059. 3059. 3059. 3059. 3059. 3059. 3059. 3059. 3059. 3059. 3059. 3059. 3059. 3059. 3059. 3059. 3059. 3033. 3033. 3033. 3033. 3059. 3059. 3059. 3059. 3059. 3087. 3087. 3087. 3087. 3115. 3115. 3115. 3143. 3143. 3143. 3143. 3172. 3201. 3201. 3231. 3262. 3293. 3357. 3390. 3423. 3423. 3458. 3493. 3493. 3458. 3458. 3458. 3493. 3493. 3528. 3528. 3565. 3565. 3602. 3602. 3602. 3602. 3602. 3602. 3640. 3640. 3602. 3640. 3602. 2881. 2881. 2881. 2881. 2857. 2857. 2834. 2834. 2834. 2834. 2834. 2834. 2857. 2834. 2810. 2834. 2810. 2810. 2810. 2834. 2834. 2834. 2834. 2857. 2857. 2857. 2857. 2857. 2857. 2857. 2881. 2881. 2930. 2955. 2980. 3006. 3006. 3033. 3033. 3033. 3033. 3033. 3033. 3006. 3006. 3006. 3033. 3033. 3006. 3006. 3006. 3006. 3033. 3033. 3033. 3006. 3033. 3033. 3059. 3059. 3059. 0. 0. 0. 0. 0. 0. 0. 0. 0. 0. 0. 0. 0. 0. 0. 0. 0. 0. 0. 0. 0. 0. 0. 0. 0. 0. 0. 0. 0. 0. 0. 0. 0. 0. 0. 0. 0. 0. 0. 0. 0. 0. 0. 0. 0. 0. 0. 0. 0. 0. 0. 0. 0. 0. 0. 0. 0. 0. 0. 0. 0. 0. 0. 0. 0. 0. 0. 0. 0. 0. 0. 0. 0. 0. 0. 0. 0. 0. 0. 0. 0. 0. 0. 0. 0. 0. 0. 0. 0. 0. 0. 0. 0. 0. 0. 0. 0. 0. 0. 0. 0. 0. 0. 0. 0. 0. 0. 0. 0. 0. 0. 0. 0. 0. 0. 0. 0. 0. 0. 0. 0. 0. 0. 0. 0. 0. 0. 0. 0. 0. 0. 0. 0. 0. 0. 0. 0. 0. 0. 2095. 2082. 2095. 2095. 2095. 2095. 2082. 2082. 2069. 2082. 2082. 2069. 2069. 2057. 2057. 2057. 2045. 2033. 2045. 2045. 2057. 2057. 2057. 2069. 2069. 2069. 2082. 2082. 0. 0. 0. 0. 0. 0. 0. 0. 0. 0. 0. 0. 0. 0. 0. 0. 0. 0. 0. 0. 0. 0. 0. 0. 0. 0. 0. 0. 0. 0. 0. 0. 0. 0. 0. 0. 0. 0. 0. 0. 0. 0. 0. 0. 0. 0. 0. 0. 0. 0. 0. 0. 0. 0. 0. 0. 0. 0. 0. 0. 0. 0. 0. 0. 0. 0. 0. 0. 0. 0. 0. 0. 0. 0. 0. 0. 0. 0. 0. 0. 0. 0. 0. 0. 0. 0. 0. 0. 0. 0. 0. 0. 0. 0. 0. 0. 0. 0. 0. 0. 0. 0. 0. 0. 0. 0. 0. 0. 0. 0. 0. 0. 0. 0. 0. 0. 0. 0. 0. 0. 0. 0. 0. 1578. 1578. 1578. 1578. 1578. 1578. 1578. 1578. 1578. 1578. 1571. 1578. 0. 0. 0. 1563. 0. 1563. 1578. 1571. 1578. 1578. 1578. 1571. 1571. 1571. 1563. 1556. 1556. 1563. 1563. 1563. 1556. 0. 0. 0. 0. 0. 0. 0. 0. 0. 0. 0. 0. 0. 0. 0. 0. 0. 0. 0. 0. 0. 0. 1542. 0. 1529. 1522. 1515. 1502. 0. 0. 0. 0. 0. 0. 0. 0. 0. 0. 0. 0. 0. 0. 0. 0. 0. 0. 0. 0. 0. 0. 0. 0.
    0. 0. 0. 0. 0. 0. 0. 0. 2487. 2505. 2505. 2523. 2542. 2542. 2560. 2560. 2560. 2560. 2580. 2580. 2580. 2580. 2580. 2599. 2599. 2599. 2599. 2619. 2619. 2639. 2639. 2639. 2659. 2659. 2680. 2680. 2701. 2701. 2701. 2722. 2722. 2722. 2722. 2722. 2743. 2743. 2743. 2743. 2743. 2743. 2722. 2722. 2722. 2765. 2788. 2788. 2788. 2810. 2810. 2810. 2810. 2810. 2810. 2834. 2834. 2857. 2857. 2881. 2881. 2881. 2905. 2905. 2905. 2905. 2905. 2905. 2905. 2930. 2930. 2955. 2955. 2955. 2980. 2955. 2980. 2980. 2980. 2980. 3006. 3006. 3006. 3033. 3033. 3033. 3059. 3059. 3059. 3059. 3059. 3059. 3087. 3087. 3087. 3115. 3115. 3115. 3143. 3172. 3172. 3172. 3172. 3172. 3172. 3172. 3201. 3201. 3201. 3172. 3172. 3172. 3172. 3143. 3143. 3115. 3115. 3087. 3087. 3087. 3087. 3087. 3087. 3087. 3087. 3087. 3087. 3087. 3059. 3059. 3059. 3059. 3059. 3059. 3059. 3059. 3059. 3059. 3059. 3059. 3059. 3059. 3059. 3033. 3033. 3033. 3033. 3033. 3033. 3059. 3059. 3059. 3059. 3059. 3087. 3087. 3115. 3115. 3143. 3143. 3143. 3143. 3172. 3172. 3201. 3201. 3231. 3262. 3293. 3324. 3390. 3390. 3423. 3458. 3493. 3493. 3458. 3458. 3493. 3493. 3493. 3528. 3565. 3565. 3602. 3602. 3602. 3602. 3602. 3602. 3602. 3640. 3640. 3640. 3602. 3602. 2881. 2881. 2881. 2881. 2857. 2834. 2834. 2834. 2834. 2834. 2834. 2834. 2857. 2834. 2810. 2810. 2810. 2810. 2810. 2834. 2834. 2834. 2834. 2857. 2857. 2857. 2857. 2857. 2857. 2857. 2881. 2881. 2930. 2955. 2980. 3006. 3033. 3033. 3033. 3033. 3033. 3033. 3033. 3006. 3006. 3006. 3033. 3033. 3006. 3006. 3006. 3006. 3033. 3033. 3033. 3033. 3033. 3033. 3059. 3059. 3059. 0. 0. 0. 0. 0. 0. 0. 0. 0. 0. 0. 0. 0. 0. 0. 0. 0. 0. 0. 0. 0. 0. 0. 0. 0. 0. 0. 0. 0. 0. 0. 0. 0. 0. 0. 0. 0. 0. 0. 0. 0. 0. 0. 0. 0. 0. 0. 0. 0. 0. 0. 0. 0. 0. 0. 0. 0. 0. 0. 0. 0. 0. 0. 0. 0. 0. 0. 0. 0. 0. 0. 0. 0. 0. 0. 0. 0. 0. 0. 0. 0. 0. 0. 0. 0. 0. 0. 0. 0. 0. 0. 0. 0. 0. 0. 0. 0. 0. 0. 0. 0. 0. 0. 0. 0. 0. 0. 0. 0. 0. 0. 0. 0. 0. 0. 0. 0. 0. 0. 0. 0. 0. 0. 0. 0. 0. 0. 0. 0. 0. 0. 0. 0. 0. 0. 0. 0. 0. 0. 0. 0. 2095. 2107. 2095. 2095. 2082. 2082. 2095. 2069. 2069. 2069. 2057. 2057. 2045. 2045. 2033. 2033. 2033. 2045. 2045. 2045. 2057. 2057. 2057. 2069. 2069. 2069. 0. 0. 0. 0. 0. 0. 0. 0. 0. 0. 0. 0. 0. 0. 0. 0. 0. 0. 0. 0. 0. 0. 0. 0. 0. 0. 0. 0. 0. 0. 0. 0. 0. 0. 0. 0. 0. 0. 0. 0. 0. 0. 0. 0. 0. 0. 0. 0. 0. 0. 0. 0. 0. 0. 0. 0. 0. 0. 0. 0. 0. 0. 0. 0. 0. 0. 0. 0. 0. 0. 0. 0. 0. 0. 0. 0. 0. 0. 0. 0. 0. 0. 0. 0. 0. 0. 0. 0. 0. 0. 0. 0. 0. 0. 0. 0. 0. 0. 0. 0. 0. 0. 0. 0. 0. 0. 0. 0. 0. 0. 0. 0. 0. 0. 0. 0. 0. 0. 0. 0. 0. 1578. 1578. 1578. 1578. 1578. 1578. 1578. 1578. 1578. 1578. 1578. 1578. 1571. 1578. 1578. 1571. 1563. 1571. 1563. 1563. 1571. 1563. 1571. 1563. 1563. 1563. 1563. 1563. 1556. 1556. 1556. 1563. 1556. 1556. 1556. 1556. 1549. 0. 1549. 1542. 1542. 0. 0. 0. 1536. 1536. 1542. 1542. 1542. 0. 1542. 0. 0. 0. 0. 0. 1542. 1542. 1542. 1536. 1529. 1522. 1515. 0. 0. 0. 0. 0. 0. 0. 0. 0. 0. 0. 0. 0. 0. 0. 0. 0. 0. 0. 0. 0. 0. 0. 0.
    0. 0. 0. 0. 0. 0. 0. 0. 2505. 2505. 2505. 2523. 2542. 2542. 2542. 2560. 2560. 2560. 2580. 2580. 2580. 2580. 2580. 2599. 2599. 2599. 2599. 2619. 2619. 2639. 2639. 2639. 2659. 2659. 2680. 2680. 2701. 2701. 2701. 2701. 2722. 2722. 2722. 2722. 2743. 2743. 2743. 2743. 2743. 2765. 2743. 2743. 2765. 2788. 2788. 2788. 2788. 2810. 2810. 2810. 2810. 2810. 2810. 2834. 2834. 2834. 2857. 2857. 2881. 2881. 2881. 2905. 2905. 2905. 2905. 2905. 2905. 2930. 2930. 2930. 2955. 2955. 2980. 2980. 2980. 2980. 2980. 3006. 3006. 2980. 3033. 3033. 3059. 3059. 3059. 3059. 3059. 3059. 3059. 3059. 3087. 3087. 3087. 3115. 3115. 3115. 3143. 3172. 3172. 3172. 3172. 3172. 3172. 3172. 3201. 3201. 3231. 3172. 3172. 3172. 3172. 3143. 3143. 3087. 3115. 3087. 3087. 3087. 3087. 3087. 3087. 3087. 3087. 3087. 3087. 3087. 3059. 3059. 3059. 3059. 3059. 3059. 3059. 3059. 3059. 3059. 3059. 3059. 3059. 3033. 3059. 3033. 3033. 3033. 3033. 3033. 3059. 3059. 3059. 3059. 3087. 3059. 3087. 3087. 3115. 3115. 3115. 3143. 3143. 3143. 3172. 3172. 3201. 3231. 3231. 3262. 3293. 3324. 3390. 3390. 3423. 3458. 3493. 3493. 3458. 3458. 3493. 3493. 3528. 3528. 3565. 3565. 3602. 3602. 3602. 3602. 3602. 3602. 3640. 3640. 3640. 3640. 3640. 3602. 2881. 2881. 2881. 2881. 2857. 2834. 2834. 2834. 2810. 2834. 2834. 2834. 2834. 2834. 2810. 2810. 2810. 2810. 2810. 2834. 2834. 2834. 2834. 2857. 2857. 2857. 2857. 2857. 2857. 2857. 2881. 2905. 2930. 2955. 2980. 3006. 3033. 3033. 3033. 3033. 3033. 3033. 3033. 3006. 3006. 3006. 3006. 3033. 3006. 3006. 3006. 3006. 3033. 3033. 3033. 3033. 3033. 3033. 3059. 3059. 0. 0. 0. 0. 0. 0. 0. 0. 0. 0. 0. 0. 0. 0. 0. 0. 0. 0. 0. 0. 0. 0. 0. 0. 0. 0. 0. 0. 0. 0. 0. 0. 0. 0. 0. 0. 0. 0. 0. 0. 0. 0. 0. 0. 0. 0. 0. 0. 0. 0. 0. 0. 0. 0. 0. 0. 0. 0. 0. 0. 0. 0. 0. 0. 0. 0. 0. 0. 0. 0. 0. 0. 0. 0. 0. 0. 0. 0. 0. 0. 0. 0. 0. 0. 0. 0. 0. 0. 0. 0. 0. 0. 0. 0. 0. 0. 0. 0. 0. 0. 0. 0. 0. 0. 0. 0. 0. 0. 0. 0. 0. 0. 0. 0. 0. 0. 0. 0. 0. 0. 0. 0. 0. 0. 0. 0. 0. 0. 0. 0. 0. 0. 0. 0. 0. 0. 0. 0. 0. 0. 0. 0. 0. 0. 0. 0. 0. 0. 0. 0. 0. 2057. 2057. 2057. 2045. 2045. 2033. 2033. 2033. 2033. 2033. 2045. 2045. 2045. 2057. 2057. 2069. 2069. 0. 0. 0. 0. 0. 0. 0. 0. 0. 0. 0. 0. 0. 0. 0. 0. 0. 0. 0. 0. 0. 0. 0. 0. 0. 0. 0. 0. 0. 0. 0. 0. 0. 0. 0. 0. 0. 0. 0. 0. 0. 0. 0. 0. 0. 0. 0. 0. 0. 0. 0. 0. 0. 0. 0. 0. 0. 0. 0. 0. 0. 0. 0. 0. 0. 0. 0. 0. 0. 0. 0. 0. 0. 0. 0. 0. 0. 0. 0. 0. 0. 0. 0. 0. 0. 0. 0. 0. 0. 0. 0. 0. 0. 0. 0. 0. 0. 0. 0. 0. 0. 0. 0. 0. 0. 0. 0. 0. 0. 0. 0. 0. 0. 0. 0. 0. 0. 0. 0. 1585. 1585. 1578. 1578. 1578. 1578. 1578. 1578. 1578. 1578. 1578. 1585. 1578. 1578. 1578. 1578. 1578. 1571. 1571. 1571. 1571. 1563. 1571. 1563. 1571. 1571. 1563. 1563. 1563. 1563. 1556. 1556. 1556. 1556. 1556. 1556. 1556. 1556. 1549. 1556. 1549. 1542. 1542. 1536. 1536. 1536. 1536. 1536. 1536. 1536. 1542. 1542. 1542. 1542. 1542. 1542. 1542. 1542. 1542. 1542. 1536. 1536. 1529. 1529. 1522. 1515. 0. 0. 0. 0. 0. 0. 0. 0. 0. 0. 0. 0. 0. 0. 0. 0. 0. 0. 0. 0. 0. 0. 0.
    0. 0. 0. 0. 0. 0. 0. 0. 2505. 2505. 2505. 2523. 2523. 2542. 2542. 2560. 2560. 2560. 2580. 2580. 2580. 2580. 2580. 2599. 2599. 2599. 2599. 2619. 2619. 2639. 2639. 2639. 2659. 2659. 2680. 2680. 2680. 2701. 2701. 2701. 2701. 2722. 2722. 2722. 2743. 2743. 2743. 2765. 2765. 2765. 2765. 2765. 2765. 2788. 2788. 2788. 2810. 2810. 2810. 2810. 2810. 2810. 2810. 2834. 2834. 2834. 2834. 2857. 2881. 2881. 2881. 2905. 2905. 2905. 2905. 2905. 2905. 2930. 2930. 2955. 2980. 2980. 2980. 2980. 2980. 2980. 2980. 3006. 3006. 3033. 3033. 3059. 3059. 3059. 3059. 3059. 3059. 3059. 3059. 3087. 3087. 3087. 3087. 3115. 3115. 3115. 3143. 3172. 3172. 3172. 3172. 3172. 3172. 3172. 3201. 3231. 3231. 3201. 3172. 3172. 3172. 3143. 3115. 3087. 3087. 3087. 3087. 3087. 3087. 3115. 3115. 3087. 3087. 3087. 3059. 3059. 3059. 3059. 3059. 3059. 3059. 3059. 3059. 3059. 3059. 3059. 3059. 3059. 3059. 3033. 3059. 3033. 3033. 3033. 3033. 3033. 3059. 3059. 3059. 3059. 3087. 3087. 3087. 3087. 3115. 3115. 3115. 3143. 3143. 3143. 3172. 3172. 3201. 3201. 3231. 3262. 3293. 3324. 3357. 3390. 3423. 3458. 3493. 3493. 3458. 3458. 3493. 3493. 3493. 3528. 3528. 3565. 3565. 3602. 3602. 3602. 3602. 3602. 3640. 3640. 3640. 3640. 3640. 3602. 3602. 2881. 2881. 2857. 2834. 2834. 2834. 2834. 2834. 2834. 2834. 2834. 2857. 2857. 2834. 2834. 2810. 2810. 2834. 2834. 2834. 2834. 2857. 2857. 2857. 2857. 2857. 2857. 2857. 2857. 2881. 2930. 2955. 2955. 2980. 3006. 3006. 3033. 3033. 3006. 3006. 3033. 3033. 3006. 3006. 3006. 3033. 3033. 3006. 3006. 3006. 3006. 3033. 3033. 3033. 3033. 3033. 3033. 3033. 3033. 0. 0. 0. 0. 0. 0. 0. 0. 0. 0. 0. 0. 0. 0. 0. 0. 0. 0. 0. 0. 0. 0. 0. 0. 0. 0. 0. 0. 0. 0. 0. 0. 0. 0. 0. 0. 0. 0. 0. 0. 0. 0. 0. 0. 0. 0. 0. 0. 0. 0. 0. 0. 0. 0. 0. 0. 0. 0. 0. 0. 0. 0. 0. 0. 0. 0. 0. 0. 0. 0. 0. 0. 0. 0. 0. 0. 0. 0. 0. 0. 0. 0. 0. 0. 0. 0. 0. 0. 0. 0. 0. 0. 0. 0. 0. 0. 0. 0. 0. 0. 0. 0. 0. 0. 0. 0. 0. 0. 0. 0. 0. 0. 0. 0. 0. 0. 0. 0. 0. 0. 0. 0. 0. 0. 0. 0. 0. 0. 0. 0. 0. 0. 0. 0. 0. 0. 0. 0. 0. 0. 0. 0. 0. 0. 0. 0. 0. 0. 0. 0. 0. 0. 2045. 2045. 2045. 2045. 2033. 2021. 2021. 2033. 2033. 2033. 2033. 2045. 2045. 2057. 2057. 0. 0. 0. 0. 0. 0. 0. 0. 0. 0. 0. 0. 0. 0. 0. 0. 0. 0. 0. 0. 0. 0. 0. 0. 0. 0. 0. 0. 0. 0. 0. 0. 0. 0. 0. 0. 0. 0. 0. 0. 0. 0. 0. 0. 0. 0. 0. 0. 0. 0. 0. 0. 0. 0. 0. 0. 0. 0. 0. 0. 0. 0. 0. 0. 0. 0. 0. 0. 0. 0. 0. 0. 0. 0. 0. 0. 0. 0. 0. 0. 0. 0. 0. 0. 0. 0. 0. 0. 0. 0. 0. 0. 0. 0. 0. 0. 0. 0. 0. 0. 0. 0. 0. 0. 0. 0. 0. 0. 0. 0. 0. 0. 0. 0. 0. 0. 0. 0. 0. 1592. 1585. 1585. 1585. 1585. 1578. 1578. 1578. 1578. 1578. 1578. 1578. 1578. 1578. 1578. 1578. 1578. 1578. 1571. 1571. 1571. 1571. 1563. 1571. 1563. 1571. 1571. 1563. 1556. 1563. 1563. 1556. 1556. 1556. 1556. 1556. 1556. 1556. 1556. 1549. 1549. 1542. 1542. 1542. 1536. 1536. 1542. 1536. 1536. 1542. 1536. 1542. 1542. 1542. 1542. 1542. 1542. 1542. 1542. 1542. 1542. 1536. 1542. 1536. 1536. 1529. 1515. 0. 0. 0. 0. 0. 0. 0. 0. 0. 0. 0. 0. 0. 0. 0. 0. 0. 0. 0. 0. 0. 0. 0.
    0. 0. 0. 0. 0. 0. 0. 0. 2505. 2523. 2523. 2523. 2542. 2542. 2542. 2560. 2560. 2560. 2580. 2580. 2580. 2580. 2580. 2599. 2599. 2599. 2599. 2619. 2619. 2639. 2639. 2639. 2659. 2659. 2659. 2680. 2680. 2680. 2701. 2701. 2701. 2722. 2722. 2722. 2743. 2743. 2743. 2765. 2765. 2765. 2765. 2788. 2788. 2788. 2788. 2788. 2810. 2810. 2810. 2810. 2810. 2810. 2810. 2810. 2834. 2834. 2857. 2857. 2881. 2881. 2881. 2881. 2905. 2905. 2905. 2905. 2905. 2930. 2930. 2955. 2980. 2980. 3006. 2980. 2980. 2980. 3006. 3006. 3006. 3033. 3033. 3059. 3059. 3059. 3059. 3059. 3059. 3059. 3059. 3059. 3087. 3087. 3087. 3115. 3115. 3115. 3143. 3143. 3172. 3172. 3172. 3172. 3172. 3172. 3201. 3231. 3201. 3172. 3172. 3172. 3172. 3115. 3115. 3087. 3087. 3087. 3087. 3087. 3087. 3087. 3087. 3087. 3087. 3087. 3087. 3087. 3059. 3059. 3059. 3059. 3059. 3059. 3059. 3059. 3059. 3059. 3059. 3059. 3059. 3033. 3059. 3033. 3033. 3033. 3033. 3033. 3059. 3059. 3059. 3059. 3087. 3087. 3087. 3087. 3115. 3115. 3115. 3143. 3143. 3143. 3143. 3172. 3201. 3201. 3231. 3262. 3262. 3324. 3357. 3390. 3423. 3458. 3493. 3493. 3458. 3493. 3493. 3493. 3493. 3528. 3528. 3565. 3565. 3565. 3602. 3602. 3602. 3602. 3640. 3640. 3640. 3640. 3640. 3679. 3679. 2834. 2834. 2834. 2834. 2834. 2834. 2834. 2834. 2834. 2834. 2834. 2857. 2857. 2834. 2834. 2810. 2810. 2834. 2834. 2834. 2834. 2857. 2857. 2857. 2857. 2857. 2857. 2857. 2881. 2881. 2930. 2955. 2955. 2980. 3006. 3006. 3006. 3033. 3033. 3033. 3033. 3033. 3033. 3006. 3033. 3033. 3033. 3006. 3006. 3006. 3033. 3033. 3033. 3033. 3033. 3033. 3033. 3059. 0. 0. 0. 0. 0. 0. 0. 0. 0. 0. 0. 0. 0. 0. 0. 0. 0. 0. 0. 0. 0. 0. 0. 0. 0. 0. 0. 0. 0. 0. 0. 0. 0. 0. 0. 0. 0. 0. 0. 0. 0. 0. 0. 0. 0. 0. 0. 0. 0. 0. 0. 0. 0. 0. 0. 0. 0. 0. 0. 0. 0. 0. 0. 0. 0. 0. 0. 0. 0. 0. 0. 0. 0. 0. 0. 0. 0. 0. 0. 0. 0. 0. 0. 0. 0. 0. 0. 0. 0. 0. 0. 0. 0. 0. 0. 0. 0. 0. 0. 0. 0. 0. 0. 0. 0. 0. 0. 0. 0. 0. 0. 0. 0. 0. 0. 0. 0. 0. 0. 0. 0. 0. 0. 0. 0. 0. 0. 0. 0. 0. 0. 0. 0. 0. 0. 0. 0. 0. 0. 0. 0. 0. 0. 0. 0. 0. 0. 0. 0. 0. 0. 0. 0. 0. 2033. 2033. 2033. 2021. 2021. 2009. 2021. 2021. 2033. 2033. 2033. 2045. 2057. 2057. 0. 0. 0. 0. 0. 0. 0. 0. 0. 0. 0. 0. 0. 0. 0. 0. 0. 0. 0. 0. 0. 0. 0. 0. 0. 0. 0. 0. 0. 0. 0. 0. 0. 0. 0. 0. 0. 0. 0. 0. 0. 0. 0. 0. 0. 0. 0. 0. 0. 0. 0. 0. 0. 0. 0. 0. 0. 0. 0. 0. 0. 0. 0. 0. 0. 0. 0. 0. 0. 0. 0. 0. 0. 0. 0. 0. 0. 0. 0. 0. 0. 0. 0. 0. 0. 0. 0. 0. 0. 0. 0. 0. 0. 0. 0. 0. 0. 0. 0. 0. 0. 0. 0. 0. 0. 0. 0. 0. 0. 0. 0. 0. 0. 0. 0. 0. 0. 0. 0. 1592. 1592. 1592. 1585. 1585. 1578. 1578. 1578. 1578. 1578. 1578. 1578. 1578. 1578. 1578. 1578. 1578. 1578. 1571. 1571. 1571. 1571. 1563. 1563. 1563. 1563. 1563. 1556. 1556. 1556. 1556. 1556. 1556. 1556. 1556. 1556. 1556. 1556. 1556. 1549. 1549. 1542. 1542. 1542. 1542. 1542. 1542. 1536. 1536. 1542. 1536. 1536. 1536. 1536. 1536. 1542. 1536. 1536. 1542. 1542. 1542. 1542. 1536. 1536. 1536. 1522. 1522. 0. 0. 0. 0. 0. 0. 0. 0. 0. 0. 0. 0. 0. 0. 0. 0. 0. 0. 0. 0. 0. 0. 0.
    0. 0. 0. 0. 0. 0. 0. 0. 2505. 2523. 2523. 2523. 2542. 2542. 2560. 2580. 2560. 2560. 2580. 2580. 2580. 2599. 2599. 2599. 2599. 2619. 2599. 2619. 2619. 2619. 2639. 2639. 2659. 2659. 2659. 2659. 2680. 2680. 2680. 2701. 2701. 2722. 2722. 2722. 2743. 2743. 2743. 2765. 2765. 2765. 2765. 2765. 2788. 2788. 2788. 2788. 2810. 2810. 2810. 2810. 2810. 2810. 2810. 2810. 2810. 2834. 2834. 2857. 2881. 2881. 2881. 2905. 2905. 2905. 2905. 2905. 2930. 2930. 2930. 2955. 2980. 2980. 2980. 2980. 2980. 2980. 3006. 3006. 3006. 3033. 3033. 3059. 3059. 3059. 3059. 3059. 3059. 3059. 3059. 3087. 3087. 3087. 3087. 3087. 3115. 3115. 3143. 3143. 3143. 3172. 3172. 3172. 3172. 3172. 3201. 3201. 3201. 3172. 3172. 3172. 3172. 3115. 3115. 3087. 3087. 3087. 3087. 3087. 3087. 3087. 3087. 3087. 3087. 3115. 3087. 3087. 3087. 3087. 3059. 3059. 3059. 3059. 3059. 3059. 3059. 3059. 3059. 3059. 3059. 3059. 3059. 3033. 3033. 3033. 3033. 3033. 3059. 3059. 3059. 3087. 3033. 3033. 3087. 3087. 3115. 3115. 3115. 3115. 3143. 3143. 3143. 3172. 3201. 3201. 3231. 3262. 3262. 3324. 3357. 3390. 3423. 3458. 3493. 3493. 3458. 3493. 3493. 3493. 3493. 3528. 3528. 3528. 3565. 3565. 3602. 3602. 3602. 3602. 3640. 3640. 3640. 3640. 3640. 3679. 3679. 2834. 2834. 2834. 2834. 2834. 2834. 2834. 2810. 2834. 2834. 2834. 2834. 2834. 2810. 2834. 2810. 2810. 2834. 2834. 2834. 2857. 2857. 2857. 2857. 2857. 2857. 2857. 2857. 2881. 2905. 2930. 2955. 2980. 2980. 3006. 3006. 3033. 3033. 3033. 3033. 3033. 3033. 3033. 3033. 3033. 3033. 3033. 3006. 3006. 3006. 3006. 3033. 3033. 3033. 3033. 3033. 3033. 3059. 0. 0. 0. 0. 0. 0. 0. 0. 0. 0. 0. 0. 0. 0. 0. 0. 0. 0. 0. 0. 0. 0. 0. 0. 0. 0. 0. 0. 0. 0. 0. 0. 0. 0. 0. 0. 0. 0. 0. 0. 0. 0. 0. 0. 0. 0. 0. 0. 0. 0. 0. 0. 0. 0. 0. 0. 0. 0. 0. 0. 0. 0. 0. 0. 0. 0. 0. 0. 0. 0. 0. 0. 0. 0. 0. 0. 0. 0. 0. 0. 0. 0. 0. 0. 0. 0. 0. 0. 0. 0. 0. 0. 0. 0. 0. 0. 0. 0. 0. 0. 0. 0. 0. 0. 0. 0. 0. 0. 0. 0. 0. 0. 0. 0. 0. 0. 0. 0. 0. 0. 0. 0. 0. 0. 0. 0. 0. 0. 0. 0. 0. 0. 0. 0. 0. 0. 0. 0. 0. 0. 0. 0. 0. 0. 0. 0. 0. 0. 0. 0. 0. 0. 0. 0. 0. 2033. 2033. 2021. 2009. 2009. 2021. 2021. 2033. 2033. 2045. 2033. 2057. 2057. 0. 0. 0. 0. 0. 0. 0. 0. 0. 0. 0. 0. 0. 0. 0. 0. 0. 0. 0. 0. 0. 0. 0. 0. 0. 0. 0. 0. 0. 0. 0. 0. 0. 0. 0. 0. 0. 0. 0. 0. 0. 0. 0. 0. 0. 0. 0. 0. 0. 0. 0. 0. 0. 0. 0. 0. 0. 0. 0. 0. 0. 0. 0. 0. 0. 0. 0. 0. 0. 0. 0. 0. 0. 0. 0. 0. 0. 0. 0. 0. 0. 0. 0. 0. 0. 0. 0. 0. 0. 0. 0. 0. 0. 0. 0. 0. 0. 0. 0. 0. 0. 0. 0. 0. 0. 0. 0. 0. 0. 0. 0. 0. 0. 0. 0. 0. 0. 0. 0. 1592. 1592. 1592. 1585. 1585. 1578. 1578. 1578. 1578. 1578. 1578. 1578. 1578. 1578. 1578. 1578. 1578. 1571. 1571. 1571. 1571. 1571. 1563. 1563. 1556. 1563. 1556. 1556. 1556. 1556. 1556. 1556. 1556. 1556. 1556. 1556. 1556. 1556. 1556. 1549. 1549. 1542. 1542. 1542. 1542. 1542. 1542. 1542. 1542. 1542. 1542. 1536. 1536. 1536. 1536. 1536. 1536. 1536. 1542. 1542. 1542. 1542. 1536. 1536. 1542. 1529. 1529. 0. 0. 0. 0. 0. 0. 0. 0. 0. 0. 0. 0. 0. 0. 0. 0. 0. 0. 0. 0. 0. 0. 0.
    0. 0. 0. 0. 0. 0. 0. 0. 2505. 2523. 2523. 2542. 2560. 2560. 2560. 2580. 2560. 2560. 2580. 2580. 2580. 2599. 2599. 2599. 2599. 2619. 2599. 2619. 2619. 2619. 2639. 2639. 2639. 2659. 2659. 2659. 2659. 2680. 2680. 2680. 2701. 2701. 2722. 2722. 2743. 2743. 2743. 2765. 2765. 2788. 2765. 2765. 2788. 2788. 2788. 2788. 2810. 2810. 2810. 2810. 2810. 2810. 2810. 2810. 2810. 2834. 2857. 2857. 2857. 2881. 2881. 2905. 2905. 2905. 2905. 2905. 2930. 2930. 2930. 2955. 2980. 2980. 2980. 2955. 2980. 2980. 3006. 2980. 3006. 3006. 3006. 3033. 3059. 3059. 3059. 3059. 3059. 3059. 3059. 3059. 3087. 3087. 3087. 3087. 3115. 3115. 3115. 3115. 3143. 3172. 3172. 3172. 3172. 3172. 3201. 3231. 3231. 3172. 3143. 3172. 3143. 3087. 3087. 3059. 3059. 3087. 3087. 3087. 3087. 3087. 3087. 3115. 3087. 3115. 3087. 3087. 3087. 3087. 3087. 3059. 3087. 3059. 3059. 3059. 3059. 3059. 3059. 3059. 3059. 3059. 3059. 3033. 3033. 3033. 3033. 3033. 3033. 3059. 3059. 3059. 3033. 3033. 3087. 3087. 3115. 3115. 3115. 3143. 3143. 3143. 3172. 3172. 3201. 3201. 3231. 3231. 3262. 3293. 3324. 3357. 3390. 3458. 3458. 3493. 3458. 3458. 3493. 3493. 3493. 3528. 3528. 3565. 3565. 3602. 3602. 3602. 3602. 3602. 3640. 3640. 3640. 3640. 3640. 3718. 3718. 2834. 2834. 2834. 2834. 2834. 2834. 2834. 2810. 2834. 2834. 2834. 2834. 2834. 2810. 2810. 2810. 2810. 2834. 2834. 2834. 2857. 2857. 2857. 2857. 2857. 2857. 2857. 2857. 2881. 2905. 2930. 2955. 2980. 2980. 3006. 3033. 3033. 3033. 3033. 3033. 3033. 3033. 3033. 3033. 3033. 3033. 3033. 3006. 3006. 3006. 3006. 3006. 3033. 3033. 3033. 3033. 3059. 0. 0. 0. 0. 0. 0. 0. 0. 0. 0. 0. 0. 0. 0. 0. 0. 0. 0. 0. 0. 0. 0. 0. 0. 0. 0. 0. 0. 0. 0. 0. 0. 0. 0. 0. 0. 0. 0. 0. 0. 0. 0. 0. 0. 0. 0. 0. 0. 0. 0. 0. 0. 0. 0. 0. 0. 0. 0. 0. 0. 0. 0. 0. 0. 0. 0. 0. 0. 0. 0. 0. 0. 0. 0. 0. 0. 0. 0. 0. 0. 0. 0. 0. 0. 0. 0. 0. 0. 0. 0. 0. 0. 0. 0. 0. 0. 0. 0. 0. 0. 0. 0. 0. 0. 0. 0. 0. 0. 0. 0. 0. 0. 0. 0. 0. 0. 0. 0. 0. 0. 0. 0. 0. 0. 0. 0. 0. 0. 0. 0. 0. 0. 0. 0. 0. 0. 0. 0. 0. 0. 0. 0. 0. 0. 0. 0. 0. 0. 0. 0. 0. 0. 0. 0. 0. 2033. 2033. 2033. 2021. 2021. 2021. 2021. 0. 0. 2021. 2045. 0. 0. 0. 0. 0. 0. 0. 0. 0. 0. 0. 0. 0. 0. 0. 0. 0. 0. 0. 0. 0. 0. 0. 0. 0. 0. 0. 0. 0. 0. 0. 0. 0. 0. 0. 0. 0. 0. 0. 0. 0. 0. 0. 0. 0. 0. 0. 0. 0. 0. 0. 0. 0. 0. 0. 0. 0. 0. 0. 0. 0. 0. 0. 0. 0. 0. 0. 0. 0. 0. 0. 0. 0. 0. 0. 0. 0. 0. 0. 0. 0. 0. 0. 0. 0. 0. 0. 0. 0. 0. 0. 0. 0. 0. 0. 0. 0. 0. 0. 0. 0. 0. 0. 0. 0. 0. 0. 0. 0. 0. 0. 0. 0. 0. 0. 0. 0. 0. 0. 0. 0. 0. 0. 1592. 1592. 1592. 1585. 1578. 1578. 1578. 1578. 1578. 1578. 1578. 1578. 1578. 1571. 1578. 1578. 1571. 1571. 1571. 1578. 1571. 1571. 1563. 1563. 1556. 1556. 1556. 1556. 1556. 1556. 1556. 1556. 1556. 1556. 1556. 1556. 1556. 1556. 1542. 1542. 1542. 1542. 1542. 1542. 1542. 1542. 1542. 1542. 1542. 1536. 1536. 1536. 1536. 1536. 1536. 1536. 1529. 1536. 1542. 1542. 1542. 1536. 1542. 1542. 1542. 1542. 0. 0. 0. 0. 0. 0. 0. 0. 0. 0. 0. 0. 0. 0. 0. 0. 0. 0. 0. 0. 0. 0. 0.
    0. 0. 0. 0. 0. 0. 0. 0. 2523. 2523. 2523. 2542. 2542. 2542. 2560. 2560. 2560. 2560. 2560. 2560. 2580. 2580. 2580. 2599. 2599. 2619. 2599. 2619. 2619. 2619. 2639. 2639. 2639. 2639. 2659. 2659. 2659. 2659. 2680. 2680. 2701. 2701. 2722. 2722. 2743. 2743. 2743. 2765. 2765. 2788. 2765. 2765. 2788. 2788. 2788. 2810. 2810. 2810. 2810. 2810. 2810. 2810. 2810. 2810. 2810. 2834. 2857. 2857. 2857. 2881. 2881. 2881. 2905. 2905. 2905. 2930. 2930. 2955. 2955. 2955. 2980. 2980. 2980. 2955. 2980. 2980. 3006. 3006. 3006. 3006. 3006. 3033. 3059. 3059. 3059. 3059. 3059. 3059. 3059. 3059. 3087. 3087. 3087. 3087. 3115. 3115. 3115. 3115. 3143. 3143. 3143. 3143. 3172. 3172. 3201. 3201. 3201. 3143. 3143. 3143. 3143. 3087. 3087. 3059. 3087. 3087. 3087. 3087. 3087. 3087. 3087. 3115. 3087. 3115. 3087. 3087. 3087. 3087. 3087. 3059. 3087. 3087. 3059. 3059. 3059. 3059. 3059. 3059. 3059. 3059. 3059. 3033. 3033. 3033. 3033. 3033. 3033. 3059. 3059. 3087. 3059. 3059. 3087. 3115. 3115. 3115. 3115. 3143. 3143. 3143. 3172. 3172. 3201. 3201. 3231. 3262. 3262. 3293. 3324. 3357. 3390. 3423. 3458. 3493. 3458. 3493. 3493. 3493. 3528. 3528. 3528. 3565. 3565. 3565. 3602. 3602. 3602. 3602. 3640. 3640. 3640. 3679. 3679. 3718. 3718. 2857. 2857. 2834. 2834. 2834. 2834. 2834. 2810. 2834. 2834. 2834. 2834. 2834. 2810. 2810. 2810. 2810. 2810. 2834. 2834. 2834. 2857. 2857. 2857. 2881. 2857. 2881. 2881. 2881. 2930. 2955. 2980. 2980. 2980. 3006. 3033. 3033. 3033. 3033. 3033. 3059. 3059. 3033. 3059. 3033. 3059. 3033. 3006. 3006. 3006. 3006. 3006. 3033. 3033. 3033. 3059. 3059. 0. 0. 0. 0. 0. 0. 0. 0. 0. 0. 0. 0. 0. 0. 0. 0. 0. 0. 0. 0. 0. 0. 0. 0. 0. 0. 0. 0. 0. 0. 0. 0. 0. 0. 0. 0. 0. 0. 0. 0. 0. 0. 0. 0. 0. 0. 0. 0. 0. 0. 0. 0. 0. 0. 0. 0. 0. 0. 0. 0. 0. 0. 0. 0. 0. 0. 0. 0. 0. 0. 0. 0. 0. 0. 0. 0. 0. 0. 0. 0. 0. 0. 0. 0. 0. 0. 0. 0. 0. 0. 0. 0. 0. 0. 0. 0. 0. 0. 0. 0. 0. 0. 0. 0. 0. 0. 0. 0. 0. 0. 0. 0. 0. 0. 0. 0. 0. 0. 0. 0. 0. 0. 0. 0. 0. 0. 0. 0. 0. 0. 0. 0. 0. 0. 0. 0. 0. 0. 0. 0. 0. 0. 0. 0. 0. 0. 0. 0. 0. 0. 0. 0. 0. 0. 2033. 2033. 2033. 2045. 2021. 2021. 2021. 0. 0. 0. 0. 0. 0. 0. 0. 0. 0. 0. 0. 0. 0. 0. 0. 0. 0. 0. 0. 0. 0. 0. 0. 0. 0. 0. 0. 0. 0. 0. 0. 0. 0. 0. 0. 0. 0. 0. 0. 0. 0. 0. 0. 0. 0. 0. 0. 0. 0. 0. 0. 0. 0. 0. 0. 0. 0. 0. 0. 0. 0. 0. 0. 0. 0. 0. 0. 0. 0. 0. 0. 0. 0. 0. 0. 0. 0. 0. 0. 0. 0. 0. 0. 0. 0. 0. 0. 0. 0. 0. 0. 0. 0. 0. 0. 0. 0. 0. 0. 0. 0. 0. 0. 0. 0. 0. 0. 0. 0. 0. 0. 0. 0. 0. 0. 0. 0. 0. 0. 0. 0. 0. 0. 0. 0. 0. 0. 1592. 1592. 1592. 1585. 1578. 1578. 1578. 1578. 1578. 1578. 1578. 1578. 1578. 1571. 1578. 1578. 1571. 1578. 1578. 1578. 1571. 1563. 1563. 1556. 1556. 1556. 1556. 1556. 1556. 1556. 1556. 1556. 1556. 1556. 1556. 1549. 1549. 1549. 1542. 1542. 1542. 1542. 1542. 1542. 1549. 1542. 1536. 1536. 1536. 1536. 1536. 1529. 1529. 1536. 1536. 1536. 1536. 1536. 1536. 1542. 1542. 1536. 1542. 1542. 1549. 1549. 0. 0. 0. 0. 0. 0. 0. 0. 0. 0. 0. 0. 0. 0. 0. 0. 0. 0. 0. 0. 0. 0. 0.
    0. 0. 0. 0. 0. 0. 0. 0. 2487. 2505. 2505. 2523. 2542. 2542. 2542. 2560. 2542. 2560. 2560. 2560. 2580. 2580. 2580. 2599. 2599. 2619. 2619. 2619. 2619. 2639. 2639. 2639. 2659. 2659. 2659. 2659. 2659. 2680. 2680. 2680. 2701. 2701. 2722. 2722. 2743. 2743. 2743. 2765. 2765. 2788. 2765. 2765. 2788. 2788. 2788. 2810. 2810. 2810. 2810. 2810. 2810. 2810. 2810. 2810. 2810. 2834. 2834. 2857. 2857. 2881. 2881. 2881. 2905. 2905. 2905. 2930. 2930. 2955. 2955. 2955. 2980. 2980. 3006. 2980. 2980. 2980. 3006. 3006. 3006. 3006. 3006. 3033. 3033. 3059. 3059. 3059. 3059. 3059. 3059. 3059. 3087. 3087. 3087. 3087. 3115. 3115. 3115. 3115. 3143. 3143. 3143. 3172. 3172. 3172. 3201. 3201. 3201. 3143. 3143. 3143. 3143. 3087. 3087. 3059. 3087. 3087. 3087. 3059. 3059. 3087. 3087. 3087. 3059. 3087. 3087. 3087. 3087. 3087. 3087. 3059. 3087. 3059. 3059. 3059. 3059. 3059. 3059. 3059. 3059. 3059. 3059. 3033. 3033. 3033. 3059. 3059. 3059. 3059. 3059. 3059. 3059. 3087. 3115. 3115. 3115. 3115. 3115. 3143. 3143. 3143. 3172. 3172. 3201. 3201. 3231. 3262. 3262. 3293. 3324. 3357. 3390. 3423. 3458. 3493. 3458. 3458. 3493. 3493. 3493. 3493. 3493. 3493. 3565. 3565. 3602. 3602. 3602. 3602. 3640. 3640. 3640. 3679. 3679. 3718. 3759. 3800. 2834. 2834. 2834. 2810. 2834. 2834. 2810. 2810. 2834. 2834. 2834. 2834. 2810. 2810. 2810. 2810. 2834. 2810. 2834. 2834. 2857. 2857. 2857. 2881. 2881. 2881. 2881. 2905. 2930. 2955. 2980. 2980. 3006. 3006. 3033. 3033. 3033. 3033. 3033. 3059. 3059. 3059. 3059. 3059. 3059. 3059. 3006. 3006. 3006. 3006. 3006. 3033. 3033. 3033. 3059. 0. 0. 0. 0. 0. 0. 0. 0. 0. 0. 0. 0. 0. 0. 0. 0. 0. 0. 0. 0. 0. 0. 0. 0. 0. 0. 0. 0. 0. 0. 0. 0. 0. 0. 0. 0. 0. 0. 0. 0. 0. 0. 0. 0. 0. 0. 0. 0. 0. 0. 0. 0. 0. 0. 0. 0. 0. 0. 0. 0. 0. 0. 0. 0. 0. 0. 0. 0. 0. 0. 0. 0. 0. 0. 0. 0. 0. 0. 0. 0. 0. 0. 0. 0. 0. 0. 0. 0. 0. 0. 0. 0. 0. 0. 0. 0. 0. 0. 0. 0. 0. 0. 0. 0. 0. 0. 0. 0. 0. 0. 0. 0. 0. 0. 0. 0. 0. 0. 0. 0. 0. 0. 0. 0. 0. 0. 0. 0. 0. 0. 0. 0. 0. 0. 0. 0. 0. 0. 0. 0. 0. 0. 0. 0. 0. 0. 0. 0. 0. 0. 0. 0. 0. 0. 0. 0. 0. 0. 0. 2021. 0. 0. 0. 0. 0. 0. 0. 0. 0. 0. 0. 0. 0. 0. 0. 0. 0. 0. 0. 0. 0. 0. 0. 0. 0. 0. 0. 0. 0. 0. 0. 0. 0. 0. 0. 0. 0. 0. 0. 0. 0. 0. 0. 0. 0. 0. 0. 0. 0. 0. 0. 0. 0. 0. 0. 0. 0. 0. 0. 0. 0. 0. 0. 0. 0. 0. 0. 0. 0. 0. 0. 0. 0. 0. 0. 0. 0. 0. 0. 0. 0. 0. 0. 0. 0. 0. 0. 0. 0. 0. 0. 0. 0. 0. 0. 0. 0. 0. 0. 0. 0. 0. 0. 0. 0. 0. 0. 0. 0. 0. 0. 0. 0. 0. 0. 0. 0. 0. 0. 0. 0. 0. 0. 0. 0. 0. 0. 0. 1585. 1592. 1592. 1585. 1592. 1585. 1578. 1578. 1578. 1578. 1578. 1578. 1578. 1578. 1578. 1578. 1578. 1578. 1578. 1578. 1571. 1571. 1571. 1563. 1556. 1556. 1556. 1556. 1556. 1556. 1556. 1556. 1556. 1556. 1556. 1556. 1549. 1549. 1549. 1549. 1542. 1542. 1542. 1536. 1542. 1542. 1542. 1542. 1542. 1536. 1542. 1536. 1536. 1529. 1529. 1529. 1536. 1536. 1536. 1536. 1536. 1542. 1542. 1536. 1536. 1536. 1536. 1536. 0. 0. 0. 0. 0. 0. 0. 0. 0. 0. 0. 0. 0. 0. 0. 0. 0. 0. 0. 0. 0. 0. 0.
    0. 0. 0. 0. 0. 0. 0. 0. 2487. 2505. 2523. 2523. 2542. 2542. 2542. 2560. 2560. 2560. 2560. 2560. 2560. 2580. 2580. 2599. 2619. 2619. 2619. 2619. 2619. 2639. 2639. 2639. 2659. 2659. 2659. 2659. 2659. 2659. 2680. 2680. 2701. 2701. 2722. 2722. 2743. 2743. 2743. 2743. 2765. 2765. 2743. 2765. 2765. 2788. 2788. 2810. 2810. 2810. 2810. 2810. 2810. 2810. 2810. 2810. 2834. 2834. 2834. 2834. 2834. 2857. 2881. 2881. 2905. 2905. 2905. 2930. 2930. 2955. 2955. 2955. 2980. 2980. 2980. 2980. 2980. 2980. 3006. 3006. 3006. 3006. 3033. 3033. 3033. 3033. 3059. 3059. 3059. 3059. 3059. 3059. 3087. 3087. 3087. 3087. 3087. 3115. 3115. 3115. 3143. 3143. 3143. 3143. 3172. 3172. 3201. 3201. 3201. 3172. 3143. 3143. 3143. 3087. 3087. 3059. 3087. 3087. 3059. 3059. 3059. 3087. 3059. 3087. 3059. 3087. 3087. 3087. 3087. 3087. 3087. 3059. 3087. 3087. 3059. 3087. 3059. 3059. 3059. 3059. 3059. 3059. 3059. 3033. 3033. 3033. 3033. 3033. 3059. 3059. 3059. 3059. 3059. 3059. 3115. 3115. 3115. 3115. 3115. 3115. 3143. 3143. 3172. 3172. 3201. 3201. 3231. 3262. 3262. 3293. 3324. 3357. 3390. 3423. 3458. 3493. 3458. 3458. 3458. 3493. 3493. 3493. 3493. 3493. 3493. 3565. 3602. 3602. 3602. 3602. 3640. 3640. 3679. 3679. 3679. 3759. 3759. 3800. 2857. 2857. 2834. 2834. 2834. 2834. 2810. 2810. 2810. 2834. 2834. 2834. 2810. 2810. 2810. 2810. 2834. 2810. 2834. 2834. 2857. 2857. 2857. 2881. 2881. 2881. 2881. 2905. 2955. 2955. 2980. 3006. 3006. 3033. 3033. 3033. 3033. 3059. 3033. 3059. 3059. 3059. 3059. 3033. 3059. 3033. 3006. 3006. 3006. 3006. 3006. 3033. 3033. 3033. 3059. 0. 0. 0. 0. 0. 0. 0. 0. 0. 0. 0. 0. 0. 0. 0. 0. 0. 0. 0. 0. 0. 0. 0. 0. 0. 0. 0. 0. 0. 0. 0. 0. 0. 0. 0. 0. 0. 0. 0. 0. 0. 0. 0. 0. 0. 0. 0. 0. 0. 0. 0. 0. 0. 0. 0. 0. 0. 0. 0. 0. 0. 0. 0. 0. 0. 0. 0. 0. 0. 0. 0. 0. 0. 0. 0. 0. 0. 0. 0. 0. 0. 0. 0. 0. 0. 0. 0. 0. 0. 0. 0. 0. 0. 0. 0. 0. 0. 0. 0. 0. 0. 0. 0. 0. 0. 0. 0. 0. 0. 0. 0. 0. 0. 0. 0. 0. 0. 0. 0. 0. 0. 0. 0. 0. 0. 0. 0. 0. 0. 0. 0. 0. 0. 0. 0. 0. 0. 0. 0. 0. 0. 0. 0. 0. 0. 0. 0. 0. 0. 0. 0. 0. 0. 0. 0. 0. 0. 0. 0. 0. 0. 0. 0. 0. 0. 0. 0. 0. 0. 0. 0. 0. 0. 0. 0. 0. 0. 0. 0. 0. 0. 0. 0. 0. 0. 0. 0. 0. 0. 0. 0. 0. 0. 0. 0. 0. 0. 0. 0. 0. 0. 0. 0. 0. 0. 0. 0. 0. 0. 0. 0. 0. 0. 0. 0. 0. 0. 0. 0. 0. 0. 0. 0. 0. 0. 0. 0. 0. 0. 0. 0. 0. 0. 0. 0. 0. 0. 0. 0. 0. 0. 0. 0. 0. 0. 0. 0. 0. 0. 0. 0. 0. 0. 0. 0. 0. 0. 0. 0. 0. 0. 0. 0. 0. 0. 0. 0. 0. 0. 0. 0. 0. 0. 0. 0. 0. 0. 0. 0. 0. 0. 0. 0. 0. 0. 0. 0. 0. 1585. 1592. 1592. 1592. 1592. 1585. 1578. 1578. 1585. 1578. 1578. 1578. 1571. 1578. 1578. 1571. 1578. 1578. 1578. 1578. 1571. 1571. 1563. 1563. 1556. 1556. 1556. 1556. 1556. 1556. 1556. 1556. 1556. 1556. 1556. 1556. 1556. 1549. 1556. 1549. 1542. 1542. 1542. 1542. 1542. 1549. 1549. 1542. 1542. 1542. 1542. 1536. 1536. 1536. 1536. 1536. 1536. 1536. 1536. 1536. 1536. 1542. 1536. 1536. 1536. 1536. 1536. 1542. 1549. 0. 0. 0. 0. 0. 0. 0. 0. 0. 0. 0. 0. 0. 0. 0. 0. 0. 0. 0. 0. 0. 0.
    0. 0. 0. 0. 0. 0. 0. 0. 2505. 2505. 2523. 2523. 2542. 2542. 2560. 2560. 2560. 2560. 2560. 2560. 2560. 2580. 2580. 2599. 2599. 2619. 2619. 2619. 2619. 2639. 2639. 2639. 2659. 2659. 2659. 2659. 2680. 2680. 2680. 2701. 2701. 2701. 2722. 2722. 2722. 2743. 2743. 2743. 2765. 2765. 2743. 2765. 2765. 2788. 2788. 2810. 2810. 2810. 2810. 2810. 2810. 2810. 2834. 2834. 2857. 2857. 2834. 2857. 2857. 2857. 2881. 2881. 2905. 2905. 2905. 2930. 2930. 2955. 2955. 2955. 2980. 2980. 3006. 2955. 2980. 2980. 2980. 2980. 3006. 3006. 3006. 3006. 3033. 3033. 3033. 3059. 3059. 3059. 3059. 3087. 3087. 3087. 3087. 3087. 3087. 3087. 3115. 3115. 3143. 3143. 3143. 3143. 3172. 3172. 3201. 3201. 3172. 3143. 3143. 3143. 3143. 3087. 3087. 3059. 3059. 3059. 3059. 3059. 3059. 3059. 3059. 3087. 3059. 3087. 3087. 3087. 3087. 3087. 3059. 3059. 3087. 3059. 3059. 3059. 3059. 3059. 3059. 3059. 3059. 3059. 3059. 3033. 3033. 3033. 3033. 3033. 3059. 3059. 3059. 3059. 3059. 3059. 3115. 3115. 3115. 3115. 3115. 3115. 3143. 3143. 3172. 3172. 3201. 3201. 3231. 3262. 3262. 3293. 3324. 3357. 3390. 3423. 3458. 3493. 3458. 3458. 3458. 3493. 3493. 3493. 3493. 3493. 3493. 3565. 3602. 3602. 3565. 3602. 3640. 3640. 3679. 3679. 3679. 3759. 3759. 3800. 2857. 2857. 2857. 2834. 2834. 2834. 2834. 2834. 2834. 2834. 2834. 2834. 2810. 2810. 2810. 2810. 2834. 2834. 2834. 2834. 2857. 2881. 2881. 2881. 2881. 2881. 2881. 2930. 2955. 2980. 3006. 3033. 3033. 3033. 3033. 3006. 3033. 3033. 3033. 3059. 3033. 3059. 3059. 3059. 3059. 3033. 3006. 3006. 3006. 3006. 3006. 3033. 3033. 3033. 3059. 0. 0. 0. 0. 0. 0. 0. 0. 0. 0. 0. 0. 0. 0. 0. 0. 0. 0. 0. 0. 0. 0. 0. 0. 0. 0. 0. 0. 0. 0. 0. 0. 0. 0. 0. 0. 0. 0. 0. 0. 0. 0. 0. 0. 0. 0. 0. 0. 0. 0. 0. 0. 0. 0. 0. 0. 0. 0. 0. 0. 0. 0. 0. 0. 0. 0. 0. 0. 0. 0. 0. 0. 0. 0. 0. 0. 0. 0. 0. 0. 0. 0. 0. 0. 1661. 1661. 0. 0. 0. 0. 0. 0. 0. 0. 0. 0. 0. 0. 0. 0. 0. 0. 0. 0. 0. 0. 0. 0. 0. 0. 0. 0. 0. 0. 0. 0. 0. 0. 0. 0. 0. 0. 0. 0. 0. 0. 0. 0. 0. 1592. 1592. 0. 0. 0. 0. 0. 0. 0. 0. 0. 0. 0. 0. 0. 0. 0. 0. 0. 0. 0. 0. 0. 0. 0. 0. 0. 0. 0. 0. 0. 0. 0. 0. 0. 0. 0. 0. 0. 0. 0. 0. 0. 0. 0. 0. 0. 0. 0. 0. 0. 0. 0. 0. 0. 0. 0. 0. 0. 0. 0. 0. 0. 0. 0. 0. 0. 0. 0. 0. 0. 0. 0. 0. 0. 0. 0. 0. 0. 0. 0. 0. 0. 0. 0. 0. 0. 0. 0. 0. 0. 0. 0. 0. 0. 0. 0. 0. 0. 0. 0. 0. 0. 0. 0. 0. 0. 0. 0. 0. 0. 0. 0. 0. 0. 0. 0. 0. 0. 0. 0. 0. 0. 0. 0. 0. 0. 0. 0. 0. 0. 0. 0. 0. 0. 0. 0. 0. 0. 0. 0. 0. 0. 0. 0. 0. 0. 0. 0. 0. 0. 0. 0. 0. 0. 0. 0. 0. 1592. 1585. 1592. 1592. 1585. 1592. 1585. 1578. 1578. 1578. 1578. 1578. 1578. 1578. 1578. 1578. 1578. 1578. 1578. 1578. 1578. 1578. 1571. 1563. 1563. 1556. 1556. 1556. 1556. 1556. 1556. 1556. 1556. 1556. 1556. 1556. 1556. 1556. 1549. 1556. 1549. 1542. 1542. 1542. 1542. 1549. 1549. 1556. 1549. 1549. 1542. 1542. 1536. 1536. 1536. 1536. 1536. 1536. 1536. 1536. 1542. 1542. 1542. 1542. 1529. 1536. 1536. 1536. 1536. 1542. 0. 0. 0. 0. 0. 0. 0. 0. 0. 0. 0. 0. 0. 0. 0. 0. 0. 0. 0. 0. 0. 0.
    0. 0. 0. 0. 0. 0. 0. 0. 2505. 2505. 2523. 2523. 2542. 2542. 2560. 2560. 2560. 2560. 2560. 2560. 2560. 2580. 2580. 2599. 2619. 2619. 2619. 2619. 2639. 2639. 2639. 2659. 2659. 2659. 2659. 2659. 2680. 2680. 2701. 2701. 2722. 2722. 2722. 2722. 2722. 2743. 2743. 2743. 2743. 2765. 2743. 2743. 2765. 2788. 2788. 2810. 2810. 2810. 2810. 2810. 2810. 2810. 2834. 2834. 2834. 2857. 2857. 2857. 2857. 2857. 2881. 2881. 2881. 2905. 2905. 2930. 2930. 2930. 2955. 2980. 2980. 2980. 3006. 2980. 2955. 2980. 2980. 2980. 3006. 3006. 3006. 3006. 3033. 3033. 3033. 3033. 3059. 3059. 3059. 3059. 3087. 3087. 3087. 3087. 3087. 3087. 3115. 3115. 3143. 3143. 3143. 3143. 3172. 3172. 3172. 3172. 3172. 3143. 3143. 3115. 3115. 3087. 3087. 3059. 3087. 3087. 3059. 3059. 3087. 3087. 3087. 3087. 3059. 3059. 3059. 3059. 3059. 3059. 3059. 3059. 3087. 3087. 3087. 3087. 3059. 3059. 3059. 3059. 3059. 3059. 3059. 3033. 3033. 3033. 3033. 3059. 3059. 3059. 3059. 3059. 3059. 3087. 3087. 3115. 3115. 3115. 3115. 3115. 3143. 3143. 3172. 3172. 3172. 3201. 3231. 3262. 3262. 3293. 3357. 3357. 3390. 3423. 3458. 3493. 3458. 3458. 3493. 3493. 3493. 3493. 3493. 3493. 3493. 3528. 3565. 3602. 3565. 3602. 3640. 3640. 3679. 3679. 3679. 3718. 3759. 3800. 2857. 2857. 2857. 2857. 2834. 2834. 2834. 2810. 2834. 2834. 2834. 2834. 2810. 2810. 2810. 2810. 2834. 2810. 2834. 2834. 2857. 2857. 2857. 2881. 2881. 2881. 2881. 2930. 2980. 2980. 3006. 3033. 3033. 3033. 3033. 3033. 3033. 3033. 3033. 3033. 3059. 3059. 3059. 3059. 3059. 3059. 3006. 3033. 3006. 3033. 3006. 3033. 3033. 3033. 3059. 0. 0. 0. 0. 0. 0. 0. 0. 0. 0. 0. 0. 0. 0. 0. 0. 0. 0. 0. 0. 0. 0. 0. 0. 0. 0. 0. 0. 0. 0. 0. 0. 0. 0. 0. 0. 0. 0. 0. 0. 0. 0. 0. 0. 0. 0. 0. 0. 0. 0. 0. 0. 0. 0. 0. 0. 0. 0. 0. 0. 0. 0. 0. 0. 0. 0. 0. 0. 0. 0. 0. 0. 0. 0. 0. 0. 0. 0. 0. 0. 0. 0. 1669. 1669. 1661. 1661. 1669. 1669. 1669. 1669. 0. 0. 0. 0. 0. 0. 0. 0. 0. 0. 0. 1661. 1661. 1661. 0. 0. 0. 0. 0. 0. 0. 0. 0. 0. 0. 0. 0. 0. 0. 0. 0. 0. 0. 0. 0. 1645. 1622. 1622. 1615. 1600. 1600. 0. 0. 0. 0. 0. 0. 0. 0. 0. 0. 0. 0. 0. 0. 0. 0. 0. 0. 0. 0. 0. 0. 0. 0. 0. 0. 0. 0. 0. 0. 0. 0. 0. 0. 0. 0. 0. 0. 0. 0. 0. 0. 0. 0. 0. 0. 0. 0. 0. 0. 0. 0. 0. 0. 0. 0. 0. 0. 0. 0. 0. 0. 0. 0. 0. 0. 0. 0. 0. 0. 0. 0. 0. 0. 0. 0. 0. 0. 0. 0. 0. 0. 0. 0. 0. 0. 0. 0. 0. 0. 0. 0. 0. 0. 0. 0. 0. 0. 0. 0. 0. 0. 0. 0. 0. 0. 0. 0. 0. 0. 0. 0. 0. 0. 0. 0. 0. 0. 0. 0. 0. 0. 0. 0. 0. 0. 0. 0. 0. 0. 0. 0. 0. 0. 0. 0. 0. 0. 0. 0. 0. 0. 0. 0. 0. 0. 0. 0. 0. 0. 0. 0. 0. 0. 0. 0. 0. 1578. 1592. 1585. 1571. 1592. 1578. 1578. 1578. 1578. 1578. 1578. 1578. 1571. 1571. 1578. 1571. 1578. 1578. 1578. 1571. 1571. 1571. 1563. 1563. 1556. 1556. 1556. 1556. 1556. 1556. 1556. 1556. 1556. 1556. 1556. 1556. 1556. 1549. 1556. 1556. 1542. 1542. 1542. 1542. 1549. 1549. 1549. 1549. 1549. 1542. 1542. 1536. 1536. 1529. 1529. 1536. 1536. 1536. 1536. 1536. 1529. 1529. 1536. 1529. 1529. 1536. 1536. 1536. 1536. 0. 0. 0. 0. 0. 0. 0. 0. 0. 0. 0. 0. 0. 0. 0. 0. 0. 0. 0. 0. 0. 0.
    0. 0. 0. 0. 0. 0. 0. 0. 2505. 2523. 2523. 2523. 2542. 2542. 2560. 2560. 2542. 2560. 2542. 2560. 2560. 2560. 2580. 2599. 2599. 2619. 2619. 2619. 2639. 2639. 2639. 2659. 2659. 2659. 2659. 2680. 2680. 2701. 2701. 2701. 2722. 2722. 2722. 2722. 2722. 2722. 2743. 2743. 2743. 2743. 2722. 2743. 2743. 2765. 2765. 2788. 2810. 2810. 2810. 2810. 2834. 2834. 2834. 2834. 2857. 2857. 2857. 2881. 2881. 2881. 2881. 2881. 2905. 2905. 2905. 2930. 2930. 2930. 2930. 2955. 2955. 2980. 3006. 2980. 2955. 2955. 2980. 2980. 2980. 3006. 3006. 3006. 3006. 3033. 3033. 3059. 3059. 3059. 3059. 3059. 3087. 3087. 3087. 3087. 3087. 3087. 3115. 3115. 3143. 3143. 3143. 3143. 3172. 3172. 3172. 3172. 3172. 3143. 3143. 3115. 3115. 3087. 3087. 3059. 3087. 3087. 3059. 3087. 3087. 3087. 3087. 3087. 3059. 3059. 3059. 3059. 3059. 3059. 3059. 3059. 3059. 3059. 3059. 3059. 3059. 3059. 3059. 3059. 3059. 3059. 3059. 3033. 3033. 3033. 3033. 3033. 3059. 3059. 3059. 3059. 3059. 3087. 3087. 3115. 3115. 3115. 3115. 3115. 3143. 3143. 3172. 3172. 3201. 3201. 3231. 3262. 3262. 3324. 3357. 3390. 3390. 3423. 3458. 3493. 3458. 3458. 3458. 3458. 3493. 3493. 3493. 3493. 3493. 3528. 3528. 3602. 3602. 3602. 3640. 3640. 3640. 3679. 3679. 3759. 3800. 3842. 2857. 2857. 2857. 2857. 2857. 2834. 2834. 2834. 2834. 2857. 2834. 2834. 2810. 2810. 2810. 2810. 2810. 2810. 2834. 2834. 2857. 2881. 2857. 2881. 2881. 2881. 2881. 2955. 2980. 3006. 3006. 3033. 3033. 3033. 3033. 3006. 3033. 3033. 3033. 3033. 3033. 3033. 3033. 3059. 3059. 3059. 3033. 3033. 3006. 3033. 3033. 3033. 3033. 3033. 0. 0. 0. 0. 0. 0. 0. 0. 0. 0. 0. 0. 0. 0. 0. 0. 0. 0. 0. 0. 0. 0. 0. 0. 0. 0. 0. 0. 0. 0. 0. 0. 0. 0. 0. 0. 0. 0. 0. 0. 0. 0. 0. 0. 0. 0. 0. 0. 0. 0. 0. 0. 0. 0. 0. 0. 0. 0. 0. 0. 0. 0. 0. 0. 0. 0. 0. 0. 0. 0. 0. 0. 0. 0. 0. 0. 0. 0. 0. 0. 0. 0. 1677. 1669. 1669. 1669. 1669. 1669. 1669. 1669. 1669. 1669. 0. 0. 0. 0. 0. 0. 1677. 1669. 1669. 1661. 1661. 1661. 1661. 1661. 1653. 1653. 1653. 0. 1653. 0. 0. 1653. 0. 0. 0. 0. 0. 0. 0. 0. 0. 0. 0. 1638. 1630. 1622. 1622. 1622. 1607. 1607. 1615. 1607. 0. 0. 0. 0. 0. 0. 0. 0. 0. 1615. 1615. 0. 0. 0. 0. 0. 0. 0. 0. 0. 0. 0. 0. 0. 1600. 0. 0. 0. 1585. 0. 0. 0. 0. 0. 0. 0. 0. 0. 0. 0. 0. 0. 0. 0. 0. 0. 0. 0. 0. 0. 0. 0. 0. 0. 0. 0. 0. 0. 0. 0. 0. 0. 0. 0. 0. 0. 0. 0. 0. 0. 0. 0. 0. 0. 0. 0. 0. 0. 0. 0. 0. 0. 0. 0. 0. 0. 0. 0. 0. 0. 0. 0. 0. 0. 0. 0. 0. 0. 0. 0. 0. 0. 0. 0. 0. 0. 0. 0. 0. 0. 0. 0. 0. 0. 0. 0. 0. 0. 0. 0. 0. 0. 0. 0. 0. 0. 0. 0. 0. 0. 0. 0. 0. 0. 0. 0. 0. 0. 0. 0. 0. 0. 0. 0. 0. 0. 0. 0. 0. 0. 0. 0. 0. 0. 0. 1578. 1563. 1563. 1556. 1585. 1578. 1578. 1578. 1578. 1578. 1578. 1578. 1571. 1571. 1578. 1578. 1571. 1578. 1578. 1578. 1571. 1571. 1563. 1563. 1556. 1556. 1556. 1556. 1556. 1556. 1556. 1556. 1556. 1556. 1556. 1556. 1556. 1556. 1556. 1556. 1549. 1542. 1542. 1542. 1549. 1549. 1549. 1549. 1542. 1542. 1536. 1536. 1536. 1536. 1536. 1536. 1536. 1536. 1536. 1536. 1536. 1536. 1536. 1529. 1536. 1536. 1542. 1542. 1536. 0. 0. 0. 0. 0. 0. 0. 0. 0. 0. 0. 0. 0. 0. 0. 0. 0. 0. 0. 0. 0. 0.
    0. 0. 0. 0. 0. 0. 0. 0. 2505. 2523. 2523. 2523. 2542. 2542. 2542. 2560. 2542. 2560. 2542. 2560. 2560. 2560. 2580. 2580. 2580. 2599. 2619. 2619. 2639. 2639. 2639. 2659. 2659. 2659. 2659. 2680. 2680. 2701. 2701. 2701. 2722. 2722. 2722. 2722. 2722. 2722. 2743. 2743. 2743. 2743. 2743. 2743. 2765. 2765. 2788. 2788. 2810. 2810. 2810. 2810. 2834. 2834. 2857. 2857. 2857. 2881. 2857. 2881. 2881. 2881. 2881. 2881. 2881. 2905. 2905. 2905. 2905. 2930. 2930. 2980. 2980. 2980. 2980. 2980. 2955. 2955. 2955. 2980. 2980. 2980. 3006. 3006. 3006. 3033. 3033. 3033. 3059. 3059. 3059. 3059. 3087. 3087. 3087. 3087. 3087. 3115. 3115. 3143. 3143. 3143. 3172. 3172. 3172. 3172. 3172. 3172. 3172. 3143. 3143. 3143. 3115. 3115. 3087. 3059. 3087. 3087. 3087. 3087. 3087. 3087. 3087. 3087. 3059. 3059. 3059. 3059. 3059. 3059. 3059. 3059. 3059. 3059. 3059. 3087. 3059. 3059. 3059. 3059. 3059. 3059. 3059. 3033. 3033. 3033. 3033. 3033. 3059. 3059. 3059. 3059. 3059. 3059. 3059. 3087. 3115. 3115. 3115. 3115. 3143. 3143. 3143. 3172. 3172. 3201. 3231. 3262. 3262. 3324. 3357. 3390. 3390. 3423. 3458. 3493. 3458. 3458. 3458. 3493. 3493. 3493. 3493. 3493. 3493. 3565. 3602. 3602. 3602. 3602. 3640. 3640. 3640. 3679. 3679. 3759. 3800. 3842. 2857. 2857. 2857. 2857. 2857. 2834. 2834. 2834. 2834. 2857. 2834. 2834. 2810. 2810. 2810. 2810. 2834. 2810. 2834. 2834. 2834. 2857. 2857. 2881. 2881. 2881. 2881. 2955. 2980. 3006. 3006. 3033. 3033. 3033. 3006. 3006. 3033. 3033. 3033. 3033. 3033. 3033. 3033. 3033. 3033. 3033. 3006. 3006. 3006. 3033. 3033. 3033. 3033. 3059. 0. 0. 0. 0. 0. 0. 0. 0. 0. 0. 0. 0. 0. 0. 0. 0. 0. 0. 0. 0. 0. 0. 0. 0. 0. 0. 0. 0. 0. 0. 0. 0. 0. 0. 0. 0. 0. 0. 0. 0. 0. 0. 0. 0. 0. 0. 0. 0. 0. 0. 0. 0. 0. 0. 0. 0. 0. 0. 0. 0. 0. 0. 0. 0. 0. 0. 0. 0. 0. 0. 0. 0. 0. 0. 0. 0. 0. 0. 0. 1694. 1694. 1677. 1677. 1677. 1669. 1669. 1669. 1669. 1669. 1669. 1669. 1669. 1677. 0. 1669. 1669. 1669. 1669. 1669. 1661. 1661. 1661. 1661. 1661. 1661. 1661. 1653. 1661. 1661. 1661. 1661. 1661. 1653. 1653. 1653. 1653. 0. 1622. 1615. 0. 1622. 0. 1653. 1653. 1653. 1638. 1638. 1630. 1630. 1622. 1622. 1622. 1622. 1615. 1622. 0. 1615. 1630. 1630. 1638. 1638. 1630. 0. 1615. 1622. 1622. 0. 0. 0. 0. 0. 0. 0. 0. 0. 0. 0. 0. 1607. 1607. 1600. 1600. 1600. 1600. 1600. 0. 0. 0. 0. 0. 0. 0. 0. 0. 0. 1607. 0. 0. 0. 0. 1578. 1578. 1578. 1578. 1578. 1585. 1578. 1585. 1585. 1578. 1592. 1585. 1578. 1578. 1578. 0. 0. 1563. 0. 0. 0. 0. 0. 1578. 1578. 1585. 0. 0. 0. 0. 0. 0. 0. 0. 0. 0. 0. 1571. 1571. 1571. 1571. 1571. 0. 0. 0. 0. 0. 0. 0. 0. 0. 0. 0. 0. 0. 0. 0. 0. 0. 0. 0. 0. 0. 0. 0. 1607. 0. 0. 0. 0. 0. 0. 0. 0. 0. 0. 0. 0. 0. 0. 0. 0. 0. 0. 0. 0. 0. 0. 0. 0. 0. 0. 0. 0. 0. 0. 0. 0. 0. 0. 0. 0. 0. 0. 0. 0. 0. 0. 0. 1563. 1549. 1549. 1542. 1542. 1542. 1529. 1529. 1529. 1509. 1509. 0. 1502. 1578. 1578. 1578. 1578. 1578. 1578. 1571. 1571. 1571. 1563. 1556. 1549. 1549. 1549. 1556. 1556. 1556. 1556. 1556. 1556. 1556. 1556. 1556. 1556. 1556. 1556. 1556. 1542. 1542. 1542. 1542. 1542. 1549. 1542. 1542. 1542. 1542. 1536. 1536. 1536. 1536. 1529. 1536. 1536. 1536. 1536. 1536. 1536. 1536. 1536. 1529. 1536. 1536. 1542. 1542. 1536. 0. 0. 0. 0. 0. 0. 0. 0. 0. 0. 0. 0. 0. 0. 0. 0. 0. 0. 0. 0. 0. 0.
    0. 0. 0. 0. 0. 0. 0. 0. 2505. 2523. 2523. 2523. 2542. 2542. 2560. 2560. 2560. 2560. 2560. 2580. 2580. 2580. 2580. 2580. 2599. 2599. 2619. 2619. 2639. 2639. 2639. 2659. 2659. 2659. 2659. 2680. 2680. 2701. 2701. 2701. 2722. 2722. 2722. 2722. 2743. 2722. 2743. 2743. 2743. 2743. 2743. 2743. 2765. 2788. 2788. 2788. 2810. 2810. 2810. 2810. 2834. 2834. 2834. 2857. 2857. 2857. 2857. 2881. 2881. 2881. 2881. 2881. 2881. 2905. 2905. 2905. 2905. 2930. 2930. 2955. 2955. 2980. 2980. 2955. 2955. 2980. 2980. 2980. 2980. 3006. 3006. 3006. 3006. 3033. 3033. 3033. 3059. 3059. 3059. 3059. 3087. 3087. 3087. 3087. 3087. 3115. 3115. 3143. 3143. 3143. 3172. 3172. 3172. 3172. 3172. 3172. 3201. 3172. 3143. 3143. 3143. 3143. 3115. 3115. 3087. 3087. 3087. 3087. 3087. 3087. 3087. 3087. 3059. 3059. 3059. 3059. 3059. 3059. 3059. 3059. 3059. 3059. 3059. 3059. 3059. 3059. 3059. 3059. 3059. 3059. 3059. 3033. 3033. 3033. 3059. 3033. 3059. 3059. 3059. 3059. 3059. 3059. 3059. 3087. 3087. 3115. 3115. 3115. 3143. 3143. 3172. 3172. 3172. 3201. 3231. 3262. 3293. 3324. 3357. 3390. 3390. 3458. 3493. 3493. 3458. 3493. 3493. 3493. 3493. 3493. 3493. 3493. 3493. 3565. 3602. 3602. 3602. 3640. 3640. 3640. 3640. 3679. 3679. 3759. 3800. 3842. 2857. 2857. 2857. 2857. 2857. 2857. 2834. 2834. 2834. 2857. 2857. 2834. 2810. 2810. 2810. 2810. 2834. 2834. 2834. 2834. 2834. 2857. 2857. 2857. 2857. 2881. 2881. 2955. 2980. 3006. 3006. 3006. 3006. 3006. 3006. 3006. 3033. 3033. 3033. 3033. 3033. 3033. 3033. 3033. 3033. 3033. 3006. 3033. 3006. 3033. 3033. 3033. 3059. 3059. 0. 0. 0. 0. 0. 0. 0. 0. 0. 0. 0. 0. 0. 0. 0. 0. 0. 0. 0. 0. 0. 0. 0. 0. 0. 0. 0. 0. 0. 0. 0. 0. 0. 0. 0. 0. 0. 0. 0. 0. 0. 0. 0. 0. 0. 0. 0. 0. 0. 0. 0. 0. 0. 0. 0. 0. 0. 0. 0. 0. 0. 0. 0. 0. 0. 0. 0. 0. 0. 0. 0. 0. 0. 0. 0. 0. 0. 0. 0. 1694. 1686. 1686. 1677. 1677. 1669. 1669. 1669. 1669. 1669. 1669. 1669. 1669. 1677. 1669. 1669. 1669. 1661. 1661. 1661. 1661. 1661. 1661. 1661. 1661. 1661. 1661. 1661. 1661. 1661. 1661. 1661. 1661. 1661. 1661. 1661. 1653. 1653. 1661. 1630. 1630. 1630. 1630. 1630. 1630. 1630. 1638. 1638. 1630. 1630. 1630. 1630. 1622. 1630. 1622. 1622. 1622. 1622. 1630. 1630. 1630. 1638. 1638. 1630. 1630. 1630. 1622. 1622. 1615. 1615. 1622. 1622. 1630. 1622. 1622. 1622. 1622. 1622. 1615. 1607. 1615. 1607. 1607. 1607. 1600. 1600. 1607. 1607. 1600. 1600. 1600. 1600. 1607. 1607. 1607. 1607. 1607. 1607. 1600. 1600. 1592. 1585. 1578. 1578. 1578. 1585. 1592. 1585. 1585. 1585. 1585. 1585. 1585. 1585. 1585. 1578. 1578. 1571. 1571. 1578. 1578. 1578. 1578. 1578. 1578. 1578. 1585. 1578. 1578. 1578. 1578. 1578. 1578. 1578. 1578. 1571. 1571. 1571. 1571. 1571. 1571. 1571. 1571. 1578. 1578. 1578. 1585. 1585. 1592. 1585. 0. 1578. 1578. 1571. 1571. 1571. 1571. 1563. 1563. 0. 0. 0. 0. 0. 0. 0. 1600. 0. 0. 1571. 0. 1563. 0. 0. 0. 0. 1542. 0. 0. 0. 0. 0. 0. 0. 0. 0. 0. 0. 0. 0. 0. 0. 0. 1556. 1556. 0. 0. 0. 0. 0. 0. 0. 0. 0. 0. 0. 0. 0. 0. 0. 1549. 1542. 1542. 1536. 1542. 1542. 1529. 1529. 0. 0. 0. 0. 0. 0. 0. 1563. 1563. 1571. 1571. 1563. 1563. 1556. 1556. 1556. 1529. 1536. 1542. 1549. 1549. 1549. 1549. 1549. 1549. 1556. 1556. 1556. 1556. 1556. 1556. 1549. 1542. 1542. 1536. 1522. 1522. 1522. 1483. 1483. 1509. 1509. 1529. 1529. 1529. 1529. 1529. 1536. 1536. 1536. 1536. 1536. 1536. 1536. 1536. 1536. 1536. 1542. 1542. 1542. 0. 0. 0. 0. 0. 0. 0. 0. 0. 0. 0. 0. 0. 0. 0. 0. 0. 0. 0. 0. 0. 0. 0.
    0. 0. 0. 0. 0. 0. 0. 0. 2505. 2523. 2523. 2523. 2523. 2523. 2560. 2560. 2560. 2560. 2560. 2580. 2580. 2580. 2580. 2599. 2619. 2619. 2639. 2639. 2659. 2659. 2659. 2659. 2659. 2659. 2659. 2680. 2680. 2701. 2701. 2701. 2722. 2722. 2722. 2722. 2743. 2722. 2743. 2743. 2743. 2743. 2743. 2743. 2765. 2788. 2788. 2788. 2788. 2788. 2810. 2810. 2834. 2834. 2834. 2857. 2857. 2857. 2857. 2881. 2881. 2881. 2881. 2881. 2881. 2905. 2905. 2905. 2905. 2930. 2930. 2930. 2955. 2955. 2955. 2955. 2955. 2980. 2980. 2980. 3006. 3006. 3006. 3006. 3006. 3006. 3033. 3033. 3059. 3059. 3059. 3059. 3087. 3087. 3087. 3087. 3087. 3115. 3115. 3115. 3143. 3143. 3172. 3172. 3172. 3172. 3201. 3201. 3201. 3201. 3172. 3172. 3172. 3143. 3143. 3115. 3087. 3087. 3087. 3087. 3087. 3087. 3087. 3059. 3059. 3059. 3059. 3059. 3059. 3059. 3059. 3059. 3059. 3059. 3059. 3059. 3059. 3059. 3059. 3059. 3059. 3059. 3059. 3033. 3033. 3059. 3059. 3059. 3059. 3059. 3059. 3059. 3059. 3059. 3059. 3087. 3087. 3087. 3115. 3143. 3143. 3143. 3172. 3172. 3201. 3231. 3231. 3262. 3293. 3324. 3357. 3390. 3390. 3458. 3493. 3493. 3458. 3458. 3493. 3493. 3493. 3493. 3493. 3493. 3493. 3565. 3602. 3602. 3640. 3602. 3640. 3640. 3640. 3679. 3679. 3759. 3800. 3842. 3930. 2834. 2834. 2857. 2857. 2857. 2857. 2834. 2857. 2857. 2857. 2834. 2810. 2810. 2810. 2810. 2834. 2834. 2834. 2834. 2834. 2857. 2857. 2857. 2857. 2881. 2881. 2955. 2980. 3006. 3033. 3006. 3006. 3006. 2980. 2980. 3006. 3006. 3006. 3033. 3033. 3033. 3033. 3033. 3033. 3033. 3006. 3033. 3006. 3033. 3033. 3033. 3033. 3059. 0. 0. 0. 0. 0. 0. 0. 0. 0. 0. 0. 0. 0. 0. 0. 0. 0. 0. 0. 0. 0. 0. 0. 0. 0. 0. 0. 0. 0. 0. 0. 0. 0. 0. 0. 0. 0. 0. 0. 0. 0. 0. 0. 0. 0. 0. 0. 0. 0. 0. 0. 0. 0. 0. 0. 0. 0. 0. 0. 0. 0. 0. 0. 0. 0. 0. 0. 0. 0. 0. 0. 0. 0. 0. 0. 0. 0. 1694. 1694. 1694. 1686. 1686. 1677. 1677. 1669. 1669. 1669. 1669. 1669. 1669. 1669. 1677. 1686. 1669. 1669. 1669. 1669. 1661. 1661. 1661. 1661. 1661. 1661. 1661. 1661. 1661. 1661. 1661. 1661. 1661. 1661. 1661. 1661. 1661. 1661. 1653. 1661. 1661. 1638. 1653. 1661. 1661. 1638. 1638. 1638. 1638. 1638. 1630. 1630. 1630. 1630. 1622. 1630. 1622. 1622. 1622. 1622. 1622. 1630. 1638. 1638. 1630. 1630. 1630. 1630. 1622. 1622. 1622. 1622. 1622. 1622. 1622. 1622. 1622. 1622. 1622. 1622. 1615. 1615. 1615. 1607. 1607. 1607. 1607. 1607. 1607. 1607. 1607. 1600. 1607. 1600. 1607. 1615. 1607. 1607. 1607. 1607. 1607. 1600. 1592. 1585. 1585. 1585. 1585. 1585. 1585. 1585. 1585. 1585. 1585. 1592. 1585. 1585. 1592. 1585. 1585. 1578. 1578. 1578. 1578. 1578. 1578. 1578. 1578. 1578. 1578. 1578. 1578. 1578. 1578. 1578. 1578. 1578. 1578. 1578. 1578. 1578. 1571. 1571. 1571. 1571. 1571. 1578. 1578. 1578. 1578. 1578. 1585. 1578. 1571. 1571. 1563. 1563. 1563. 1556. 1563. 1563. 1563. 1563. 1563. 1563. 1563. 1563. 1563. 1571. 1571. 1571. 1571. 1571. 1571. 1563. 0. 0. 1542. 1542. 1542. 1542. 1542. 0. 0. 0. 0. 0. 0. 0. 0. 0. 0. 0. 1542. 0. 1549. 1556. 1549. 0. 1549. 1549. 0. 0. 1536. 1529. 1522. 1529. 1529. 0. 1529. 1536. 1529. 1536. 1542. 1536. 1536. 1536. 1536. 1536. 1529. 1529. 1502. 1509. 1509. 0. 1502. 1502. 1496. 1496. 1502. 1502. 1502. 1502. 1502. 1509. 1509. 1509. 1509. 1509. 1536. 1542. 1549. 1542. 1542. 1542. 1556. 1556. 1556. 1549. 1549. 1549. 1549. 1549. 1536. 1496. 1496. 1483. 1477. 1477. 1483. 1483. 1509. 1509. 1509. 1509. 1529. 1529. 1529. 1529. 1522. 1509. 1509. 1515. 1509. 1509. 1509. 1509. 1502. 1542. 1549. 1549. 0. 0. 0. 0. 0. 0. 0. 0. 0. 0. 0. 0. 0. 1458. 1452. 1458. 1452. 1452. 0. 0. 0. 0. 0.
    0. 0. 0. 0. 0. 0. 0. 0. 2505. 2523. 2523. 2523. 2523. 2523. 2542. 2560. 2560. 2560. 2560. 2580. 2580. 2580. 2580. 2599. 2599. 2619. 2619. 2639. 2659. 2659. 2639. 2659. 2659. 2659. 2659. 2680. 2659. 2701. 2701. 2701. 2722. 2722. 2743. 2743. 2743. 2743. 2743. 2743. 2743. 2743. 2743. 2743. 2743. 2765. 2765. 2765. 2765. 2788. 2810. 2810. 2810. 2834. 2834. 2857. 2857. 2857. 2857. 2857. 2881. 2881. 2881. 2881. 2881. 2881. 2905. 2905. 2905. 2930. 2930. 2955. 2955. 2955. 2955. 2955. 2955. 2980. 2980. 2980. 3006. 3006. 3006. 3006. 3006. 3033. 3033. 3033. 3033. 3059. 3059. 3059. 3087. 3087. 3087. 3087. 3087. 3115. 3115. 3115. 3143. 3143. 3172. 3172. 3201. 3201. 3201. 3201. 3231. 3201. 3172. 3172. 3172. 3172. 3143. 3115. 3087. 3087. 3087. 3087. 3087. 3059. 3059. 3059. 3059. 3059. 3059. 3059. 3059. 3059. 3059. 3059. 3059. 3059. 3059. 3059. 3059. 3059. 3059. 3059. 3059. 3059. 3059. 3033. 3033. 3059. 3059. 3059. 3059. 3059. 3059. 3059. 3059. 3059. 3059. 3059. 3087. 3087. 3115. 3115. 3143. 3143. 3172. 3172. 3201. 3231. 3262. 3262. 3293. 3324. 3357. 3390. 3423. 3458. 3493. 3493. 3458. 3493. 3493. 3493. 3493. 3493. 3528. 3493. 3493. 3565. 3565. 3602. 3602. 3640. 3640. 3640. 3640. 3679. 3679. 3759. 3800. 3842. 3885. 2857. 2857. 2857. 2857. 2857. 2857. 2857. 2857. 2857. 2857. 2834. 2810. 2810. 2810. 2810. 2834. 2834. 2834. 2834. 2834. 2857. 2857. 2857. 2857. 2857. 2857. 2930. 2980. 2980. 3006. 3006. 3006. 2980. 2980. 2980. 3006. 3006. 3006. 3033. 3033. 3033. 3033. 3059. 3033. 3033. 3033. 3033. 3033. 3033. 3033. 3033. 3033. 3033. 0. 0. 0. 0. 0. 0. 0. 0. 0. 0. 0. 0. 0. 0. 0. 0. 0. 0. 0. 0. 0. 0. 0. 0. 0. 0. 0. 0. 0. 0. 0. 0. 0. 0. 0. 0. 0. 0. 0. 0. 0. 0. 0. 0. 0. 0. 0. 0. 0. 0. 0. 0. 0. 0. 0. 0. 0. 0. 0. 0. 0. 0. 0. 0. 0. 0. 0. 0. 0. 0. 0. 0. 0. 0. 0. 0. 0. 1694. 1694. 1694. 1686. 1686. 1677. 1669. 1669. 1669. 1669. 1669. 1669. 1669. 1669. 1669. 1677. 1669. 1669. 1669. 1661. 1661. 1661. 1653. 1653. 1653. 1661. 1661. 1661. 1661. 1661. 1661. 1661. 1661. 1653. 1661. 1661. 1661. 1661. 1653. 1653. 1661. 1653. 1653. 1653. 1653. 1653. 1653. 1645. 1645. 1645. 1638. 1638. 1638. 1638. 1630. 1630. 1630. 1630. 1622. 1622. 1622. 1630. 1638. 1630. 1630. 1630. 1622. 1630. 1622. 1622. 1622. 1622. 1622. 1622. 1622. 1622. 1622. 1622. 1622. 1622. 1615. 1622. 1622. 1607. 1607. 1607. 1607. 1607. 1607. 1607. 1607. 1600. 1607. 1600. 1607. 1607. 1607. 1607. 1607. 1607. 1600. 1600. 1592. 1585. 1585. 1585. 1585. 1585. 1585. 1592. 1592. 1585. 1585. 1592. 1592. 1585. 1592. 1585. 1585. 1578. 1578. 1578. 1578. 1585. 1578. 1578. 1578. 1578. 1578. 1578. 1578. 1578. 1578. 1578. 1578. 1578. 1578. 1578. 1578. 1578. 1578. 1578. 1571. 1578. 1578. 1578. 1578. 1578. 1578. 1578. 1578. 1571. 1571. 1571. 1563. 1563. 1563. 1556. 1563. 1563. 1563. 1563. 1563. 1563. 1556. 1563. 1563. 1571. 1571. 1571. 1571. 1571. 1571. 1563. 1563. 1549. 1549. 1542. 1542. 1542. 1542. 1556. 1549. 1549. 1556. 1549. 0. 0. 1549. 1549. 1542. 1542. 1542. 1549. 1549. 1556. 1556. 1549. 1549. 1549. 0. 1542. 1536. 1529. 1529. 1529. 1522. 1515. 1522. 1522. 1522. 1529. 1536. 1529. 1529. 1529. 1529. 1529. 1515. 1502. 1502. 1509. 1509. 1502. 1502. 1502. 1496. 1496. 1502. 1496. 1496. 1502. 1502. 1502. 1502. 1502. 1502. 1502. 1509. 1522. 1515. 1515. 1509. 1515. 1502. 1549. 1549. 1549. 1542. 1542. 1556. 1542. 1483. 1489. 1483. 1477. 1470. 1477. 1477. 1477. 1496. 1496. 1496. 1502. 1502. 1509. 1509. 1509. 1483. 1477. 1477. 1496. 1496. 1470. 1496. 1489. 1489. 1489. 0. 0. 0. 0. 0. 0. 0. 0. 0. 0. 0. 0. 0. 0. 0. 1458. 1458. 1458. 1452. 1452. 1440. 1434. 0. 0. 0.</data></depth_far>
</opencv_storage>
