<?xml version="1.0"?>
<opencv_storage>
<depth_template type_id="opencv-matrix">
  <rows>60</rows>
  <cols>60</cols>
  <dt>f</dt>
  <data>
    1221. 1221. 1221. 1221. 1216. 1216. 1216. 1216. 1212. 1208. 1208.
    1204. 1204. 1200. 1200. 1200. 1195. 1195. 1195. 1195. 1191. 1191.
    1191. 1195. 1195. 1191. 1191. 1191. 1191. 1191. 1187. 1187. 1187.
    1187. 1187. 1191. 1191. 1191. 1191. 1191. 1191. 1195. 1195. 1195.
    1195. 1195. 1200. 1200. 1200. 1204. 1204. 1208. 1204. 1208. 1208.
    1208. 1208. 1208. 1212. 1212. 1221. 1221. 1216. 1216. 1216. 1212.
    1216. 1216. 1208. 1204. 1204. 1204. 1204. 1200. 1200. 1200. 1195.
    1195. 1195. 1195. 1191. 1191. 1191. 1195. 1191. 1191. 1191. 1187.
    1187. 1187. 1187. 1183. 1187. 1187. 1187. 1187. 1187. 1187. 1187.
    1187. 1191. 1191. 1195. 1195. 1195. 1195. 1195. 1200. 1200. 1200.
    1200. 1204. 1200. 1204. 1204. 1204. 1208. 1208. 1208. 1212. 1216.
    1216. 1212. 1208. 1208. 1208. 1208. 1208. 1204. 1200. 1204. 1200.
    1200. 1200. 1200. 1200. 1195. 1195. 1195. 1191. 1191. 1191. 1191.
    1187. 1187. 1187. 1183. 1183. 1183. 1183. 1183. 1183. 1183. 1183.
    1183. 1183. 1183. 1187. 1187. 1187. 1187. 1187. 1191. 1191. 1191.
    1195. 1195. 1200. 1200. 1200. 1200. 1204. 1200. 1200. 1204. 1204.
    1208. 1208. 1208. 1208. 1212. 1212. 1208. 1208. 1204. 1208. 1208.
    1204. 1200. 1200. 1200. 1200. 1200. 1195. 1195. 1195. 1195. 1195.
    1191. 1187. 1187. 1187. 1187. 1187. 1183. 1183. 1183. 1183. 1183.
    1183. 1183. 1183. 1183. 1183. 1183. 1183. 1183. 1183. 1183. 1183.
    1183. 1187. 1187. 1191. 1191. 1191. 1195. 1195. 1200. 1200. 1200.
    1200. 1200. 1200. 1200. 1204. 1204. 1208. 1208. 1208. 1208. 1208.
    1204. 1204. 1204. 1204. 1204. 1200. 1195. 1195. 1195. 1195. 1195.
    1191. 1191. 1191. 1191. 1191. 1187. 1187. 1183. 1183. 1183. 1183.
    1183. 1183. 1179. 1179. 1179. 1179. 1179. 1179. 1183. 1183. 1183.
    1183. 1183. 1183. 1183. 1183. 1183. 1183. 1183. 1187. 1187. 1191.
    1191. 1195. 1195. 1200. 1200. 1200. 1195. 1195. 1200. 1200. 1200.
    1204. 1208. 1208. 1204. 1204. 1204. 1200. 1200. 1200. 1200. 1200.
    1195. 1195. 1195. 1195. 1191. 1191. 1187. 1187. 1187. 1187. 1183.
    1183. 1183. 1183. 1183. 1183. 1179. 1179. 1179. 1179. 1179. 1179.
    1179. 1179. 1179. 1179. 1179. 1179. 1183. 1183. 1183. 1183. 1183.
    1183. 1183. 1183. 1187. 1187. 1191. 1191. 1195. 1195. 1200. 1200.
    1195. 1195. 1195. 1200. 1200. 1204. 1204. 1208. 1204. 1200. 1200.
    1200. 1200. 1200. 1195. 1195. 1191. 1191. 1191. 1187. 1187. 1187.
    1187. 1187. 1183. 1183. 1183. 1183. 1183. 1183. 1179. 1179. 1179.
    1179. 1175. 1175. 1175. 1179. 1179. 1179. 1179. 1179. 1179. 1179.
    1179. 1179. 1179. 1179. 1183. 1183. 1183. 1183. 1183. 1187. 1191.
    1191. 1195. 1195. 1195. 1195. 1195. 1195. 1195. 1200. 1200. 1204.
    1204. 1208. 1200. 1200. 1200. 1195. 1195. 1195. 1195. 1195. 1191.
    1187. 1187. 1187. 1183. 1183. 1183. 1183. 1183. 1183. 1183. 1183.
    1183. 1179. 1179. 1179. 1175. 1175. 1171. 1171. 1171. 1175. 1175.
    1175. 1179. 1179. 1179. 1179. 1179. 1179. 1179. 1179. 1179. 1183.
    1183. 1183. 1183. 1187. 1187. 1191. 1195. 1195. 1195. 1195. 1195.
    1195. 1195. 1195. 1200. 1200. 1204. 1204. 1200. 1195. 1195. 1195.
    1195. 1191. 1191. 1191. 1187. 1183. 1183. 1183. 1183. 1183. 1183.
    1183. 1183. 1183. 1179. 1179. 1179. 1179. 1175. 1175. 1175. 1171.
    1171. 1171. 1171. 1171. 1171. 1175. 1175. 1175. 1175. 1179. 1179.
    1179. 1179. 1179. 1179. 1179. 1179. 1183. 1183. 1183. 1187. 1191.
    1191. 1195. 1195. 1195. 1191. 1195. 1195. 1195. 1195. 1200. 1200.
    1204. 1195. 1195. 1195. 1191. 1191. 1191. 1191. 1187. 1183. 1183.
    1183. 1183. 1183. 1183. 1183. 1183. 1179. 1179. 1179. 1179. 1179.
    1175. 1171. 1171. 1171. 1171. 1167. 1167. 1167. 1171. 1171. 1171.
    1171. 1175. 1175. 1175. 1175. 1175. 1179. 1179. 1179. 1179. 1179.
    1179. 1183. 1183. 1187. 1187. 1191. 1191. 1195. 1195. 1191. 1191.
    1191. 1195. 1195. 1200. 1200. 1204. 1195. 1191. 1191. 1191. 1187.
    1187. 1187. 1187. 1183. 1179. 1179. 1179. 1179. 1179. 1179. 1179.
    1179. 1179. 1179. 1175. 1175. 1171. 1171. 1171. 1171. 1167. 1167.
    1167. 1167. 1167. 1171. 1171. 1171. 1171. 1171. 1175. 1175. 1175.
    1175. 1175. 1175. 1175. 1179. 1179. 1179. 1183. 1183. 1187. 1187.
    1191. 1191. 1191. 1191. 1191. 1191. 1191. 1195. 1195. 1195. 1200.
    1191. 1191. 1191. 1187. 1187. 1187. 1187. 1183. 1179. 1179. 1179.
    1179. 1179. 1179. 1179. 1179. 1175. 1175. 1175. 1171. 1171. 1167.
    1167. 1167. 1167. 1167. 1167. 1167. 1167. 1167. 1167. 1167. 1167.
    1171. 1171. 1171. 1171. 1171. 1171. 1171. 1175. 1175. 1175. 1179.
    1179. 1179. 1183. 1183. 1183. 1187. 1191. 1191. 1187. 1191. 1191.
    1191. 1191. 1195. 1195. 1200. 1191. 1191. 1187. 1187. 1187. 1183.
    1183. 1183. 1179. 1179. 1179. 1179. 1179. 1179. 1175. 1175. 1171.
    1171. 1171. 1167. 1167. 1167. 1167. 1167. 1167. 1167. 1167. 1167.
    1167. 1167. 1167. 1167. 1167. 1167. 1167. 1167. 1167. 1167. 1167.
    1171. 1171. 1171. 1175. 1175. 1175. 1179. 1179. 1183. 1183. 1187.
    1191. 1191. 1187. 1187. 1191. 1191. 1191. 1195. 1195. 1195. 1187.
    1187. 1187. 1187. 1183. 1183. 1183. 1183. 1179. 1179. 1179. 1175.
    1175. 1175. 1175. 1171. 1167. 1167. 1167. 1167. 1167. 1167. 1167.
    1167. 1167. 1167. 1163. 1163. 1163. 1163. 1163. 1163. 1163. 1163.
    1163. 1167. 1167. 1167. 1167. 1167. 1167. 1167. 1171. 1171. 1175.
    1175. 1179. 1179. 1183. 1183. 1187. 1187. 1183. 1187. 1187. 1191.
    1191. 1191. 1191. 1195. 1187. 1187. 1187. 1183. 1183. 1183. 1183.
    1183. 1179. 1175. 1175. 1175. 1175. 1171. 1171. 1167. 1167. 1167.
    1167. 1167. 1163. 1163. 1163. 1163. 1163. 1163. 1163. 1163. 1163.
    1163. 1163. 1163. 1159. 1159. 1163. 1163. 1163. 1163. 1167. 1167.
    1167. 1167. 1167. 1171. 1171. 1171. 1175. 1175. 1179. 1183. 1183.
    1183. 1183. 1183. 1187. 1187. 1191. 1191. 1191. 1195. 1187. 1187.
    1183. 1183. 1183. 1183. 1183. 1179. 1175. 1175. 1175. 1171. 1171.
    1171. 1167. 1167. 1167. 1167. 1167. 1163. 1163. 1163. 1163. 1163.
    1163. 1163. 1163. 1163. 1159. 1163. 1159. 1159. 1159. 1159. 1159.
    1159. 1163. 1163. 1163. 1167. 1167. 1167. 1167. 1167. 1167. 1167.
    1171. 1171. 1175. 1179. 1179. 1183. 1179. 1183. 1183. 1187. 1187.
    1191. 1191. 1191. 1183. 1183. 1183. 1183. 1183. 1179. 1179. 1179.
    1175. 1175. 1171. 1171. 1171. 1167. 1167. 1167. 1163. 1163. 1163.
    1163. 1163. 1163. 1163. 1163. 1163. 1163. 1159. 1159. 1159. 1159.
    1155. 1155. 1151. 1155. 1155. 1155. 1159. 1159. 1163. 1163. 1163.
    1167. 1167. 1167. 1167. 1167. 1171. 1171. 1175. 1175. 1179. 1179.
    1179. 1179. 1183. 1183. 1187. 1187. 1191. 1191. 1183. 1183. 1183.
    1179. 1179. 1179. 1179. 1175. 1171. 1171. 1167. 1167. 1167. 1167.
    1167. 1163. 1163. 1163. 1163. 1163. 1163. 1163. 1159. 1163. 1159.
    1159. 1159. 1159. 1155. 1151. 1151. 1151. 1151. 1151. 1151. 1155.
    1155. 1159. 1159. 1163. 1163. 1163. 1163. 1167. 1167. 1167. 1167.
    1167. 1171. 1171. 1175. 1179. 1175. 1179. 1179. 1183. 1183. 1187.
    1187. 1191. 1183. 1183. 1183. 1179. 1179. 1179. 1179. 1175. 1171.
    1167. 1167. 1167. 1167. 1167. 1163. 1163. 1163. 1163. 1163. 1159.
    1163. 1159. 1159. 1159. 1159. 1159. 1159. 1155. 1151. 1151. 1151.
    1151. 1151. 1151. 1151. 1151. 1155. 1155. 1159. 1163. 1163. 1163.
    1163. 1167. 1167. 1167. 1167. 1171. 1171. 1171. 1175. 1179. 1175.
    1179. 1179. 1179. 1183. 1187. 1187. 1191. 1183. 1183. 1179. 1179.
    1175. 1175. 1175. 1171. 1167. 1167. 1167. 1167. 1163. 1163. 1163.
    1163. 1163. 1159. 1159. 1159. 1159. 1159. 1159. 1155. 1155. 1155.
    1155. 1151. 1151. 1151. 1151. 1151. 1151. 1151. 1151. 1151. 1151.
    1155. 1159. 1159. 1163. 1163. 1163. 1163. 1167. 1167. 1167. 1167.
    1171. 1171. 1171. 1175. 1175. 1179. 1179. 1179. 1179. 1183. 1187.
    1187. 1183. 1179. 1179. 1179. 1175. 1175. 1175. 1171. 1167. 1167.
    1167. 1167. 1163. 1163. 1163. 1159. 1159. 1159. 1155. 1155. 1155.
    1155. 1155. 1151. 1151. 1151. 1151. 1151. 1151. 1148. 1148. 1148.
    1148. 1148. 1151. 1151. 1151. 1151. 1155. 1155. 1159. 1159. 1159.
    1163. 1163. 1163. 1167. 1167. 1167. 1167. 1171. 1175. 1175. 1175.
    1179. 1179. 1179. 1183. 1183. 1187. 1179. 1179. 1179. 1179. 1175.
    1171. 1171. 1171. 1167. 1167. 1167. 1163. 1163. 1163. 1163. 1159.
    1155. 1155. 1155. 1151. 1151. 1151. 1151. 1151. 1151. 1151. 1148.
    1151. 1148. 1148. 1148. 1148. 1148. 1148. 1151. 1151. 1151. 1151.
    1151. 1155. 1159. 1159. 1159. 1163. 1163. 1163. 1167. 1167. 1167.
    1167. 1171. 1175. 1171. 1175. 1175. 1175. 1179. 1179. 1183. 1187.
    1179. 1179. 1175. 1175. 1171. 1171. 1171. 1171. 1167. 1163. 1163.
    1163. 1163. 1163. 1159. 1155. 1155. 1151. 1151. 1151. 1151. 1151.
    1151. 1148. 1148. 1148. 1148. 1148. 1148. 1148. 1148. 1148. 1148.
    1148. 1148. 1148. 1148. 1151. 1151. 1151. 1155. 1155. 1155. 1159.
    1163. 1163. 1163. 1167. 1167. 1167. 1167. 1171. 1171. 1171. 1175.
    1175. 1179. 1179. 1183. 1187. 1175. 1175. 1175. 1171. 1171. 1171.
    1171. 1167. 1163. 1163. 1163. 1163. 1159. 1159. 1155. 1155. 1151.
    1151. 1151. 1151. 1151. 1148. 1148. 1148. 1148. 1148. 1148. 1148.
    1148. 1148. 1148. 1148. 1148. 1144. 1148. 1148. 1148. 1148. 1151.
    1151. 1151. 1155. 1155. 1159. 1163. 1163. 1163. 1163. 1167. 1167.
    1167. 1171. 1167. 1171. 1175. 1175. 1179. 1179. 1183. 1187. 1175.
    1175. 1171. 1171. 1171. 1167. 1167. 1167. 1163. 1163. 1163. 1159.
    1159. 1155. 1155. 1151. 1151. 1151. 1151. 1148. 1148. 1148. 1148.
    1148. 1148. 1144. 1144. 1144. 1144. 1144. 1144. 1144. 1144. 1144.
    1144. 1144. 1148. 1148. 1148. 1151. 1151. 1155. 1155. 1159. 1159.
    1163. 1163. 1163. 1163. 1167. 1167. 1171. 1167. 1171. 1171. 1175.
    1179. 1179. 1183. 1187. 1175. 1171. 1171. 1171. 1171. 1167. 1167.
    1167. 1163. 1163. 1159. 1159. 1155. 1155. 1151. 1151. 1151. 1151.
    1151. 1148. 1148. 1148. 1148. 1148. 1144. 1144. 1140. 1140. 1140.
    1140. 1140. 1140. 1140. 1140. 1140. 1140. 1144. 1148. 1148. 1148.
    1151. 1151. 1155. 1159. 1159. 1163. 1163. 1163. 1163. 1167. 1167.
    1167. 1167. 1171. 1171. 1175. 1179. 1179. 1183. 1183. 1171. 1171.
    1171. 1171. 1167. 1167. 1167. 1167. 1163. 1159. 1159. 1159. 1155.
    1155. 1151. 1151. 1151. 1148. 1148. 1148. 1148. 1144. 1144. 1144.
    1144. 1140. 1140. 1140. 1140. 1136. 1136. 1136. 1136. 1136. 1140.
    1140. 1144. 1144. 1148. 1148. 1151. 1151. 1155. 1159. 1159. 1163.
    1163. 1163. 1163. 1167. 1167. 1167. 1167. 1167. 1171. 1175. 1175.
    1179. 1183. 1187. 1171. 1171. 1171. 1171. 1167. 1167. 1167. 1167.
    1163. 1159. 1159. 1155. 1155. 1155. 1151. 1151. 1151. 1148. 1148.
    1148. 1148. 1144. 1144. 1144. 1140. 1140. 1136. 1136. 1136. 1136.
    1136. 1136. 1136. 1136. 1136. 1140. 1140. 1144. 1144. 1148. 1148.
    1151. 1151. 1155. 1159. 1159. 1163. 1163. 1163. 1167. 1167. 1167.
    1167. 1167. 1171. 1175. 1175. 1179. 1183. 1187. 1171. 1171. 1171.
    1167. 1167. 1167. 1167. 1167. 1163. 1159. 1159. 1155. 1155. 1155.
    1151. 1151. 1151. 1148. 1148. 1148. 1144. 1144. 1140. 1140. 1140.
    1136. 1136. 1136. 1136. 1136. 1136. 1136. 1136. 1136. 1136. 1136.
    1140. 1144. 1144. 1148. 1148. 1151. 1151. 1155. 1155. 1159. 1159.
    1163. 1163. 1163. 1167. 1167. 1167. 1167. 1171. 1175. 1175. 1179.
    1183. 1187. 1171. 1171. 1171. 1167. 1167. 1167. 1167. 1167. 1163.
    1159. 1159. 1155. 1155. 1151. 1151. 1151. 1151. 1148. 1148. 1148.
    1144. 1144. 1140. 1140. 1140. 1136. 1136. 1136. 1136. 1136. 1136.
    1136. 1136. 1136. 1136. 1136. 1140. 1144. 1144. 1148. 1148. 1151.
    1151. 1155. 1155. 1159. 1159. 1163. 1163. 1163. 1167. 1167. 1167.
    1167. 1171. 1175. 1175. 1179. 1183. 1187. 1171. 1171. 1171. 1167.
    1167. 1167. 1167. 1167. 1163. 1159. 1159. 1155. 1155. 1151. 1151.
    1151. 1151. 1148. 1148. 1148. 1144. 1144. 1144. 1140. 1140. 1136.
    1136. 1136. 1136. 1136. 1133. 1136. 1136. 1136. 1136. 1136. 1140.
    1144. 1144. 1148. 1148. 1151. 1151. 1155. 1155. 1159. 1159. 1163.
    1163. 1167. 1167. 1167. 1167. 1167. 1171. 1175. 1179. 1179. 1183.
    1187. 1171. 1171. 1171. 1167. 1167. 1167. 1167. 1167. 1163. 1159.
    1159. 1155. 1155. 1151. 1151. 1151. 1151. 1148. 1148. 1148. 1144.
    1144. 1144. 1140. 1140. 1136. 1136. 1136. 1136. 1136. 1133. 1136.
    1136. 1136. 1136. 1140. 1140. 1144. 1144. 1148. 1148. 1151. 1151.
    1151. 1155. 1159. 1159. 1163. 1163. 1167. 1167. 1167. 1167. 1171.
    1171. 1175. 1175. 1179. 1183. 1187. 1171. 1171. 1171. 1167. 1167.
    1167. 1167. 1167. 1159. 1159. 1159. 1155. 1155. 1155. 1151. 1151.
    1151. 1148. 1148. 1148. 1144. 1144. 1144. 1140. 1136. 1136. 1136.
    1136. 1136. 1136. 1136. 1136. 1136. 1136. 1136. 1140. 1140. 1144.
    1144. 1148. 1148. 1151. 1151. 1151. 1155. 1159. 1163. 1163. 1163.
    1167. 1167. 1167. 1167. 1171. 1171. 1175. 1175. 1179. 1183. 1187.
    1171. 1171. 1171. 1167. 1167. 1167. 1167. 1163. 1159. 1159. 1159.
    1155. 1155. 1151. 1151. 1151. 1148. 1148. 1148. 1148. 1144. 1144.
    1144. 1140. 1136. 1136. 1136. 1136. 1136. 1136. 1136. 1136. 1136.
    1136. 1136. 1140. 1140. 1144. 1148. 1148. 1148. 1151. 1151. 1151.
    1155. 1159. 1163. 1163. 1163. 1167. 1167. 1167. 1167. 1171. 1171.
    1175. 1175. 1179. 1183. 1187. 1171. 1171. 1171. 1167. 1167. 1167.
    1167. 1163. 1159. 1159. 1155. 1155. 1155. 1151. 1151. 1151. 1151.
    1148. 1148. 1148. 1148. 1148. 1144. 1144. 1140. 1136. 1136. 1136.
    1136. 1136. 1136. 1136. 1136. 1136. 1136. 1136. 1140. 1144. 1148.
    1148. 1148. 1151. 1151. 1151. 1155. 1159. 1159. 1163. 1163. 1167.
    1167. 1167. 1167. 1167. 1171. 1175. 1175. 1179. 1179. 1183. 1171.
    1171. 1171. 1167. 1167. 1167. 1167. 1163. 1159. 1159. 1155. 1155.
    1155. 1151. 1151. 1151. 1151. 1151. 1148. 1148. 1148. 1148. 1144.
    1144. 1140. 1136. 1136. 1136. 1136. 1136. 1136. 1136. 1136. 1136.
    1136. 1136. 1140. 1144. 1148. 1148. 1148. 1151. 1151. 1151. 1155.
    1155. 1159. 1163. 1163. 1167. 1167. 1167. 1167. 1167. 1171. 1175.
    1175. 1179. 1179. 1183. 1171. 1171. 1171. 1171. 1167. 1167. 1167.
    1163. 1159. 1159. 1155. 1155. 1155. 1151. 1151. 1151. 1151. 1151.
    1148. 1148. 1148. 1148. 1144. 1144. 1140. 1136. 1136. 1136. 1136.
    1136. 1136. 1136. 1136. 1136. 1140. 1140. 1144. 1144. 1148. 1148.
    1148. 1151. 1151. 1151. 1155. 1155. 1159. 1163. 1163. 1167. 1167.
    1167. 1167. 1171. 1171. 1175. 1179. 1179. 1179. 1183. 1171. 1171.
    1171. 1171. 1167. 1167. 1167. 1163. 1159. 1159. 1155. 1155. 1155.
    1155. 1151. 1151. 1151. 1151. 1151. 1148. 1148. 1148. 1148. 1144.
    1140. 1140. 1136. 1136. 1136. 1136. 1136. 1136. 1136. 1136. 1140.
    1140. 1140. 1144. 1148. 1148. 1151. 1151. 1151. 1151. 1155. 1155.
    1159. 1163. 1163. 1163. 1167. 1167. 1167. 1167. 1171. 1175. 1175.
    1179. 1179. 1183. 1175. 1171. 1171. 1171. 1167. 1167. 1167. 1163.
    1159. 1159. 1155. 1155. 1155. 1155. 1151. 1151. 1151. 1151. 1151.
    1148. 1148. 1148. 1148. 1144. 1144. 1140. 1136. 1136. 1136. 1136.
    1136. 1136. 1136. 1136. 1140. 1140. 1140. 1144. 1148. 1148. 1151.
    1151. 1151. 1151. 1155. 1155. 1159. 1163. 1163. 1163. 1167. 1167.
    1167. 1167. 1171. 1175. 1175. 1179. 1179. 1183. 1175. 1171. 1171.
    1171. 1167. 1167. 1167. 1163. 1159. 1155. 1155. 1155. 1155. 1155.
    1151. 1151. 1151. 1151. 1151. 1151. 1148. 1148. 1148. 1144. 1144.
    1140. 1136. 1136. 1136. 1136. 1136. 1136. 1136. 1136. 1140. 1140.
    1140. 1144. 1144. 1148. 1148. 1151. 1151. 1151. 1155. 1155. 1159.
    1163. 1163. 1167. 1167. 1167. 1167. 1167. 1171. 1175. 1175. 1179.
    1179. 1183. 1175. 1171. 1171. 1171. 1167. 1167. 1167. 1167. 1159.
    1159. 1155. 1155. 1155. 1155. 1151. 1151. 1151. 1151. 1151. 1151.
    1148. 1148. 1148. 1144. 1144. 1144. 1144. 1136. 1136. 1136. 1136.
    1136. 1136. 1136. 1140. 1140. 1140. 1148. 1148. 1151. 1151. 1151.
    1151. 1151. 1151. 1155. 1159. 1159. 1163. 1163. 1167. 1167. 1167.
    1167. 1167. 1175. 1175. 1179. 1179. 1179. 1175. 1171. 1171. 1171.
    1167. 1167. 1167. 1167. 1159. 1159. 1155. 1155. 1155. 1151. 1151.
    1155. 1151. 1151. 1151. 1148. 1148. 1148. 1148. 1148. 1148. 1144.
    1144. 1144. 1144. 1140. 1140. 1140. 1136. 1136. 1140. 1144. 1144.
    1148. 1148. 1151. 1151. 1151. 1151. 1151. 1155. 1155. 1159. 1159.
    1163. 1163. 1167. 1167. 1167. 1167. 1167. 1175. 1175. 1179. 1179.
    1179. 1175. 1171. 1171. 1171. 1171. 1167. 1167. 1167. 1159. 1159.
    1155. 1155. 1155. 1155. 1151. 1151. 1151. 1148. 1148. 1148. 1148.
    1148. 1148. 1148. 1148. 1144. 1144. 1144. 1144. 1144. 1144. 1140.
    1144. 1144. 1144. 1144. 1148. 1148. 1148. 1151. 1151. 1151. 1151.
    1151. 1155. 1159. 1159. 1159. 1163. 1163. 1167. 1167. 1167. 1171.
    1171. 1175. 1175. 1179. 1179. 1179. 1175. 1171. 1171. 1171. 1171.
    1167. 1167. 1167. 1163. 1159. 1159. 1159. 1155. 1155. 1151. 1151.
    1151. 1148. 1148. 1148. 1148. 1148. 1148. 1148. 1148. 1148. 1148.
    1144. 1144. 1144. 1144. 1144. 1144. 1144. 1144. 1148. 1148. 1148.
    1148. 1148. 1151. 1151. 1151. 1155. 1155. 1159. 1163. 1163. 1163.
    1163. 1167. 1167. 1167. 1171. 1171. 1175. 1175. 1179. 1179. 1179.
    1175. 1175. 1175. 1171. 1171. 1167. 1167. 1167. 1159. 1159. 1159.
    1155. 1155. 1155. 1151. 1151. 1151. 1148. 1148. 1148. 1148. 1148.
    1148. 1148. 1148. 1148. 1148. 1148. 1148. 1148. 1148. 1144. 1148.
    1148. 1148. 1148. 1148. 1148. 1148. 1151. 1151. 1151. 1151. 1155.
    1155. 1159. 1163. 1163. 1163. 1167. 1167. 1171. 1167. 1171. 1171.
    1175. 1175. 1179. 1179. 1179. 1175. 1175. 1175. 1171. 1171. 1167.
    1167. 1167. 1159. 1159. 1159. 1155. 1155. 1155. 1151. 1151. 1151.
    1151. 1148. 1148. 1148. 1148. 1148. 1148. 1148. 1148. 1148. 1148.
    1148. 1148. 1148. 1148. 1148. 1148. 1148. 1148. 1148. 1148. 1148.
    1151. 1151. 1151. 1155. 1155. 1159. 1163. 1163. 1163. 1163. 1167.
    1167. 1171. 1167. 1171. 1171. 1175. 1175. 1179. 1179. 1179. 1175.
    1175. 1175. 1171. 1171. 1171. 1167. 1167. 1163. 1159. 1159. 1159.
    1159. 1155. 1155. 1151. 1151. 1151. 1151. 1148. 1148. 1148. 1148.
    1148. 1148. 1148. 1148. 1148. 1148. 1148. 1148. 1148. 1148. 1148.
    1148. 1148. 1148. 1148. 1148. 1151. 1151. 1155. 1155. 1159. 1159.
    1163. 1163. 1163. 1167. 1167. 1167. 1171. 1167. 1171. 1171. 1175.
    1175. 1179. 1179. 1179. 1179. 1175. 1175. 1175. 1171. 1171. 1171.
    1167. 1163. 1163. 1159. 1159. 1159. 1155. 1155. 1151. 1151. 1151.
    1151. 1151. 1148. 1148. 1148. 1148. 1148. 1148. 1148. 1148. 1148.
    1148. 1148. 1148. 1148. 1148. 1148. 1148. 1148. 1148. 1148. 1151.
    1151. 1155. 1155. 1159. 1159. 1163. 1163. 1167. 1167. 1167. 1167.
    1171. 1167. 1171. 1171. 1175. 1179. 1179. 1179. 1179. 1179. 1179.
    1175. 1175. 1171. 1171. 1171. 1167. 1163. 1163. 1163. 1159. 1159.
    1159. 1155. 1155. 1155. 1151. 1151. 1151. 1151. 1148. 1148. 1148.
    1148. 1148. 1148. 1148. 1148. 1148. 1148. 1148. 1148. 1148. 1148.
    1148. 1148. 1148. 1151. 1151. 1155. 1155. 1159. 1159. 1163. 1163.
    1167. 1167. 1167. 1167. 1167. 1171. 1171. 1171. 1175. 1175. 1179.
    1179. 1179. 1179. 1179. 1179. 1175. 1175. 1171. 1171. 1171. 1167.
    1163. 1163. 1163. 1163. 1159. 1159. 1159. 1155. 1155. 1151. 1151.
    1151. 1151. 1151. 1151. 1148. 1148. 1148. 1148. 1151. 1148. 1151.
    1151. 1148. 1151. 1151. 1151. 1148. 1151. 1151. 1151. 1151. 1155.
    1159. 1159. 1159. 1163. 1163. 1167. 1167. 1167. 1167. 1167. 1171.
    1171. 1171. 1175. 1175. 1179. 1179. 1179. 1179. 1179. 1179. 1175.
    1175. 1171. 1171. 1171. 1171. 1163. 1163. 1163. 1163. 1163. 1163.
    1159. 1155. 1155. 1155. 1151. 1151. 1151. 1151. 1151. 1151. 1148.
    1151. 1151. 1151. 1151. 1151. 1151. 1151. 1151. 1151. 1151. 1151.
    1151. 1151. 1151. 1155. 1155. 1159. 1159. 1163. 1163. 1163. 1167.
    1167. 1167. 1167. 1167. 1171. 1171. 1171. 1175. 1175. 1179. 1179.
    1179. 1183. 1179. 1179. 1179. 1175. 1175. 1175. 1171. 1171. 1167.
    1163. 1163. 1163. 1163. 1163. 1159. 1155. 1155. 1155. 1155. 1151.
    1151. 1151. 1151. 1151. 1151. 1151. 1151. 1151. 1151. 1151. 1151.
    1151. 1151. 1151. 1151. 1151. 1155. 1155. 1155. 1155. 1159. 1159.
    1159. 1163. 1163. 1163. 1167. 1167. 1167. 1167. 1171. 1171. 1171.
    1175. 1175. 1175. 1179. 1179. 1179. 1179. 1179. 1179. 1179. 1175.
    1175. 1175. 1171. 1171. 1167. 1163. 1163. 1163. 1163. 1163. 1163.
    1159. 1159. 1159. 1155. 1155. 1155. 1151. 1151. 1151. 1151. 1151.
    1151. 1151. 1151. 1151. 1151. 1151. 1151. 1151. 1155. 1155. 1155.
    1155. 1155. 1159. 1159. 1163. 1163. 1163. 1163. 1163. 1167. 1167.
    1167. 1171. 1171. 1175. 1175. 1175. 1175. 1179. 1179. 1179. 1179.
    1183. 1183. 1179. 1179. 1175. 1175. 1175. 1175. 1171. 1167. 1167.
    1167. 1163. 1163. 1163. 1163. 1159. 1159. 1159. 1155. 1155. 1155.
    1155. 1151. 1151. 1151. 1151. 1151. 1151. 1151. 1151. 1151. 1155.
    1155. 1155. 1155. 1159. 1155. 1159. 1159. 1159. 1159. 1163. 1163.
    1163. 1163. 1167. 1167. 1171. 1171. 1175. 1175. 1175. 1175. 1175.
    1175. 1179. 1179. 1179. 1179. 1183. 1183. 1179. 1179. 1175. 1175.
    1175. 1175. 1171. 1167. 1167. 1167. 1167. 1163. 1163. 1163. 1159.
    1159. 1159. 1155. 1155. 1155. 1155. 1155. 1155. 1151. 1151. 1151.
    1151. 1151. 1151. 1155. 1155. 1155. 1155. 1159. 1159. 1159. 1159.
    1159. 1159. 1159. 1163. 1163. 1163. 1163. 1167. 1167. 1171. 1175.
    1175. 1179. 1179. 1175. 1175. 1175. 1179. 1179. 1179. 1179. 1183.
    1183. 1179. 1179. 1179. 1175. 1175. 1175. 1171. 1167. 1167. 1167.
    1167. 1163. 1163. 1163. 1159. 1159. 1159. 1159. 1159. 1159. 1155.
    1155. 1155. 1155. 1155. 1155. 1155. 1155. 1155. 1155. 1155. 1155.
    1159. 1159. 1159. 1159. 1159. 1159. 1159. 1163. 1163. 1163. 1163.
    1167. 1167. 1171. 1175. 1175. 1179. 1179. 1179. 1175. 1179. 1179.
    1179. 1179. 1179. 1183. 1183. 1183. 1179. 1179. 1179. 1175. 1175.
    1175. 1171. 1167. 1167. 1167. 1167. 1163. 1163. 1163. 1163. 1159.
    1159. 1159. 1159. 1159. 1159. 1155. 1159. 1159. 1155. 1159. 1159.
    1155. 1159. 1159. 1159. 1159. 1159. 1159. 1159. 1159. 1159. 1159.
    1163. 1163. 1163. 1163. 1167. 1167. 1167. 1171. 1175. 1175. 1179.
    1179. 1179. 1175. 1175. 1179. 1179. 1179. 1179. 1183. 1187. 1183.
    1179. 1179. 1175. 1175. 1175. 1175. 1171. 1167. 1167. 1167. 1167.
    1163. 1163. 1163. 1163. 1163. 1159. 1159. 1159. 1159. 1159. 1155.
    1159. 1159. 1159. 1159. 1159. 1159. 1159. 1159. 1159. 1159. 1159.
    1159. 1163. 1163. 1163. 1163. 1163. 1163. 1163. 1167. 1167. 1167.
    1171. 1175. 1175. 1179. 1179. 1179. 1179. 1175. 1179. 1179. 1179.
    1179. 1183. 1183. 1187. 1183. 1179. 1175. 1175. 1175. 1175. 1175.
    1171. 1167. 1167. 1167. 1167. 1163. 1163. 1163. 1163. 1163. 1163.
    1163. 1159. 1159. 1159. 1159. 1159. 1159. 1159. 1159. 1163. 1159.
    1163. 1163. 1163. 1163. 1163. 1163. 1163. 1163. 1163. 1163. 1163.
    1167. 1167. 1167. 1167. 1171. 1171. 1175. 1175. 1179. 1179. 1179.
    1179. 1179. 1179. 1179. 1179. 1179. 1183. 1187. 1187. 1183. 1179.
    1175. 1175. 1175. 1175. 1171. 1171. 1167. 1167. 1167. 1167. 1167.
    1163. 1163. 1163. 1163. 1163. 1163. 1163. 1159. 1159. 1159. 1163.
    1163. 1163. 1163. 1163. 1163. 1163. 1163. 1163. 1163. 1163. 1163.
    1163. 1163. 1163. 1163. 1163. 1167. 1167. 1167. 1167. 1171. 1175.
    1175. 1179. 1179. 1179. 1179. 1179. 1179. 1179. 1179. 1179. 1179.
    1183. 1187. 1191.</data></depth_template>
</opencv_storage>
