<?xml version="1.0"?>
<opencv_storage>
<original_depth type_id="opencv-matrix">
  <rows>25</rows>
  <cols>640</cols>
  <dt>f</dt>
  <data>
    0. 0. 0. 0. 0. 0. 0. 0. 0. 0. 0. 0. 0. 0. 0. 0. 0. 0. 0. 2701. 2701. 2680. 2680. 2639. 2599. 2542. 2542. 2523. 2542. 2542. 2542. 2542. 2542. 2523. 2560. 2560. 2560. 2560. 2580. 2580. 2580. 2580. 2580. 2599. 2599. 2599. 2619. 2619. 2619. 2639. 2680. 2680. 2680. 2680. 2680. 2701. 2680. 2680. 2680. 2680. 2680. 2701. 2722. 2722. 2722. 2743. 2743. 2743. 2743. 2743. 2743. 2743. 2743. 2743. 2743. 2765. 2765. 2765. 2765. 2788. 2788. 2788. 2810. 2810. 2810. 2810. 2834. 2834. 2834. 2834. 2834. 2834. 2857. 2857. 2857. 2857. 2857. 2905. 2487. 2487. 2469. 2469. 2469. 2469. 2451. 2434. 2417. 2417. 2417. 2417. 2417. 2417. 2417. 2417. 2417. 2417. 2417. 2417. 2417. 2417. 2417. 2417. 2417. 2417. 2417. 2417. 2417. 2417. 2417. 2434. 2434. 2434. 2434. 2451. 2451. 2451. 2451. 2451. 1344. 0. 0. 0. 0. 0. 0. 0. 1319. 1324. 1319. 1319. 1319. 1319. 1319. 1314. 1314. 1314. 1314. 1309. 1309. 1304. 1304. 1294. 1289. 1284. 1284. 1284. 1280. 1275. 1284. 1275. 1275. 1275. 1275. 1270. 1270. 1270. 1265. 1261. 1256. 1261. 1261. 1261. 1256. 1261. 1256. 1256. 1252. 1252. 1247. 1247. 1247. 1247. 1247. 1247. 1247. 1247. 1247. 1247. 1243. 1243. 1243. 1247. 1243. 1238. 1238. 1243. 1243. 1243. 1243. 1238. 1243. 1238. 1238. 1238. 1238. 1238. 1234. 1234. 1234. 1234. 1234. 1234. 1234. 1234. 1234. 1234. 1238. 1234. 1234. 1234. 1234. 1234. 1229. 1229. 1229. 1229. 1225. 1225. 1225. 1225. 1225. 1229. 1229. 1229. 1229. 1229. 1234. 1234. 1234. 1234. 1234. 1234. 1234. 1234. 1234. 1234. 1234. 1234. 1238. 1238. 1238. 1238. 1238. 1243. 1243. 1243. 1243. 1247. 1247. 1247. 1247. 1243. 1243. 1247. 1247. 1247. 1243. 1243. 1243. 1247. 1247. 1247. 1252. 1252. 1256. 1256. 1261. 1261. 1261. 1261. 1261. 1265. 1265. 1270. 1270. 1270. 1275. 1275. 1280. 1275. 1280. 1280. 1280. 1284. 1284. 1294. 1284. 1289. 1294. 1294. 1294. 1299. 1304. 1299. 1299. 1299. 1314. 1319. 1324. 1324. 1324. 1329. 1329. 1329. 1334. 1334. 1334. 1339. 1344. 1344. 1344. 1350. 1355. 1360. 1360. 1355. 1360. 1360. 1371. 1371. 0. 0. 0. 0. 0. 0. 0. 0. 0. 0. 0. 0. 0. 0. 0. 0. 2788. 2788. 2788. 2788. 2765. 2765. 2743. 2743. 2722. 2722. 2722. 2701. 2701. 2701. 2701. 2701. 2701. 2701. 2701. 2701. 2701. 2701. 2680. 2701. 2701. 2701. 2701. 2701. 2701. 2680. 2680. 2680. 2680. 2680. 2659. 2659. 2659. 2659. 2659. 2659. 2659. 2659. 2659. 2639. 2639. 2619. 2619. 2619. 2619. 2619. 2619. 2599. 2599. 2599. 2599. 2599. 2599. 2599. 2599. 2599. 2599. 2599. 2599. 2599. 2599. 2580. 2580. 2580. 2580. 2580. 2580. 2580. 2560. 2580. 2580. 2560. 2560. 2542. 2542. 2542. 2542. 2560. 2523. 2523. 2523. 1366. 2523. 2523. 2505. 2505. 2505. 2505. 2505. 2487. 2487. 2451. 2469. 2505. 2505. 2505. 2505. 2505. 2505. 2505. 2505. 2505. 1324. 1324. 1324. 1324. 1324. 1324. 2469. 2469. 2451. 2434. 2434. 2417. 2417. 2417. 2417. 2417. 1329. 1324. 1319. 1319. 1314. 1314. 1314. 1314. 1319. 1319. 1314. 1319. 1314. 1669. 1669. 1661. 1669. 1289. 1294. 1294. 1294. 1294. 1294. 1289. 1294. 1294. 1289. 1294. 1294. 1289. 1289. 1284. 1284. 1280. 1275. 1270. 1275. 1275. 1275. 1275. 1275. 1275. 1275. 1275. 1270. 1265. 1256. 1256. 1256. 1256. 1256. 1256. 1252. 1256. 1252. 1252. 1252. 1252. 1252. 1252. 1247. 1247. 1247. 1247. 1247. 1252. 1243. 1243. 1234. 1234. 1229. 1229. 1229. 1229. 1229. 1229. 1229. 1225. 1225. 1225. 1221. 1221. 1216. 1216. 1216. 1216. 1216. 1216. 1212. 1212. 1208. 1204. 1200. 1195. 1195. 1200. 1200. 1200. 1200. 1204. 1204. 1204. 1204. 1200. 1195. 1191. 1191. 1187. 1187. 1179. 1179. 1179. 1179. 1179. 1175. 1175. 1175. 1175. 1175. 1175. 1175. 1175. 1171. 1167. 1167. 1167. 1163. 1163. 1163. 1163. 1163. 1163. 1163. 1163. 1163. 1159. 1159. 1155. 1155. 1151. 1148. 1151. 1151. 1151. 1151. 1151. 1151. 1151. 1148. 1151. 1151. 1151. 1148. 1148. 1148. 1148. 1148. 1148. 1151. 1148. 1151. 1148.
    0. 0. 0. 0. 0. 0. 0. 0. 0. 0. 0. 0. 0. 0. 0. 0. 0. 0. 0. 2701. 2701. 2680. 2659. 2599. 2560. 2523. 2523. 2523. 2523. 2542. 2542. 2542. 2523. 2523. 2542. 2560. 2560. 2560. 2560. 2580. 2580. 2580. 2580. 2599. 2599. 2599. 2619. 2619. 2639. 2639. 2659. 2680. 2680. 2680. 2680. 2680. 2680. 2680. 2680. 2680. 2680. 2701. 2701. 2722. 2722. 2743. 2743. 2743. 2743. 2743. 2743. 2743. 2743. 2743. 2743. 2765. 2765. 2765. 2765. 2788. 2788. 2788. 2788. 2810. 2810. 2810. 2834. 2834. 2834. 2834. 2834. 2834. 2857. 2857. 2857. 2857. 2857. 2881. 2487. 2487. 2469. 2469. 2451. 2469. 2451. 2417. 2417. 2400. 2400. 2400. 2400. 2417. 2400. 2400. 2400. 2417. 2417. 2417. 2417. 2417. 2417. 2417. 2417. 2417. 2417. 2417. 2417. 2417. 2417. 2434. 2434. 2434. 2434. 2434. 2451. 2451. 0. 0. 0. 0. 0. 0. 0. 0. 0. 0. 1319. 1319. 1314. 1314. 1314. 1314. 1314. 1309. 1309. 1309. 1304. 1304. 1304. 1294. 1284. 1280. 1280. 1280. 1280. 1280. 1275. 1275. 1275. 1270. 1270. 1270. 1270. 1270. 1270. 1261. 1261. 1256. 1256. 1256. 1256. 1256. 1256. 1256. 1256. 1252. 1247. 1252. 1247. 1247. 1243. 1243. 1243. 1243. 1243. 1243. 1243. 1243. 1238. 1238. 1238. 1243. 1238. 1234. 1234. 1238. 1238. 1234. 1234. 1234. 1234. 1234. 1234. 1234. 1234. 1234. 1234. 1234. 1234. 1234. 1234. 1229. 1229. 1229. 1234. 1234. 1234. 1234. 1234. 1234. 1234. 1234. 1229. 1229. 1225. 1225. 1225. 1229. 1225. 1225. 1225. 1225. 1225. 1229. 1229. 1229. 1229. 1229. 1229. 1229. 1229. 1229. 1229. 1229. 1229. 1234. 1234. 1234. 1234. 1238. 1238. 1238. 1238. 1238. 1238. 1238. 1243. 1243. 1243. 1243. 1247. 1247. 1247. 1252. 1247. 1247. 1243. 1243. 1243. 1243. 1247. 1247. 1247. 1252. 1252. 1256. 1256. 1256. 1256. 1256. 1256. 1261. 1261. 1265. 1265. 1265. 1270. 1270. 1275. 1275. 1275. 1275. 1280. 1280. 1280. 1284. 1280. 1284. 1289. 1294. 1294. 1299. 1304. 1294. 1294. 1299. 1299. 1319. 1324. 1319. 1324. 1329. 1329. 1329. 1329. 1329. 1334. 1334. 1339. 1339. 1339. 1344. 1344. 1355. 1355. 1355. 1360. 1360. 1371. 1371. 0. 0. 0. 0. 0. 0. 0. 0. 0. 0. 0. 0. 0. 0. 0. 0. 2788. 2788. 2788. 2788. 2765. 2765. 2765. 2743. 2743. 2722. 2722. 2722. 2701. 2701. 2701. 2701. 2701. 2701. 2701. 2701. 2701. 2701. 2701. 2701. 2701. 2701. 2701. 2701. 2701. 2680. 2680. 2680. 2680. 2680. 2680. 2659. 2659. 2659. 2659. 2659. 2659. 2659. 2659. 2639. 2639. 2619. 2619. 2619. 2619. 2619. 2619. 2599. 2599. 2599. 2599. 2599. 2599. 2599. 2599. 2599. 2599. 2599. 2599. 2599. 2580. 2580. 2580. 2580. 2580. 2560. 2560. 2560. 2560. 2580. 2580. 2542. 2542. 2542. 2542. 2523. 2523. 2542. 2523. 2523. 2523. 2523. 2523. 2523. 2523. 2523. 2505. 2523. 2505. 2505. 2505. 2487. 2487. 2487. 2505. 2505. 2505. 2505. 2505. 2505. 2505. 2505. 2505. 2505. 1324. 1324. 2487. 1324. 2469. 2451. 2451. 2434. 2434. 2417. 2417. 2417. 2417. 2417. 2417. 2434. 2434. 2434. 1319. 1314. 1314. 1314. 1314. 1319. 1319. 1677. 1677. 1677. 1669. 1669. 1669. 1661. 1661. 1661. 1653. 1294. 1294. 1294. 1294. 1294. 1294. 1294. 1294. 1645. 1294. 1289. 1284. 1280. 1275. 1270. 1275. 1275. 1275. 1275. 1270. 1270. 1270. 1270. 1265. 1265. 1261. 1256. 1252. 1256. 1252. 1252. 1256. 1252. 1252. 1252. 1252. 1252. 1252. 1252. 1247. 1247. 1247. 1247. 1252. 1252. 1243. 1247. 1234. 1234. 1229. 1229. 1229. 1229. 1229. 1229. 1229. 1229. 1229. 1225. 1225. 1221. 1216. 1216. 1216. 1216. 1216. 1216. 1212. 1212. 1208. 1204. 1200. 1195. 1195. 1200. 1200. 1204. 1204. 1208. 1204. 1204. 1204. 1204. 1200. 1195. 1191. 1187. 1187. 1179. 1183. 1179. 1179. 1175. 1175. 1175. 1175. 1175. 1175. 1171. 1171. 1171. 1171. 1171. 1167. 1167. 1167. 1167. 1163. 1163. 1163. 1163. 1167. 1167. 1163. 1159. 1159. 1155. 1151. 1148. 1148. 1148. 1151. 1151. 1151. 1151. 1151. 1151. 1148. 1148. 1148. 1148. 1144. 1144. 1144. 1144. 1148. 1144. 1148. 1148. 1148. 1144.
    0. 0. 0. 0. 0. 0. 0. 0. 0. 0. 0. 0. 0. 0. 0. 0. 0. 0. 0. 2680. 2680. 2659. 2560. 2560. 2542. 2523. 2523. 2523. 2542. 2542. 2542. 2542. 2542. 2523. 2560. 2560. 2560. 2560. 2560. 2580. 2580. 2580. 2580. 2599. 2599. 2619. 2619. 2619. 2639. 2639. 2659. 2680. 2680. 2680. 2680. 2701. 2680. 2659. 2680. 2680. 2680. 2680. 2701. 2701. 2722. 2743. 2743. 2743. 2743. 2743. 2743. 2743. 2743. 2743. 2765. 2765. 2765. 2765. 2765. 2788. 2810. 2810. 2810. 2810. 2834. 2810. 2834. 2834. 2834. 2834. 2834. 2834. 2834. 2857. 2857. 2857. 2857. 2857. 2881. 2469. 2469. 2451. 2451. 2451. 2434. 2417. 2417. 2400. 2400. 2384. 2384. 2384. 2384. 2400. 2400. 2400. 2400. 2417. 2417. 2417. 2400. 2417. 2417. 2417. 2417. 2417. 2417. 2417. 2417. 2434. 2434. 2434. 2434. 2434. 2451. 2451. 2434. 0. 0. 0. 0. 0. 0. 0. 0. 1319. 1319. 1319. 1319. 1314. 1314. 1314. 1314. 1309. 1304. 1304. 1299. 1299. 1294. 1289. 1280. 1275. 1275. 1275. 1275. 1275. 1270. 1270. 1275. 1270. 1270. 1270. 1270. 1265. 1261. 1256. 1252. 1252. 1252. 1252. 1252. 1252. 1252. 1252. 1252. 1252. 1247. 1247. 1247. 1243. 1243. 1243. 1243. 1238. 1238. 1238. 1238. 1238. 1234. 1238. 1234. 1238. 1234. 1234. 1234. 1234. 1234. 1234. 1234. 1229. 1229. 1234. 1229. 1229. 1229. 1229. 1229. 1229. 1229. 1229. 1234. 1229. 1229. 1229. 1229. 1229. 1229. 1229. 1229. 1229. 1229. 1229. 1225. 1225. 1225. 1225. 1225. 1225. 1225. 1225. 1225. 1225. 1225. 1225. 1229. 1229. 1229. 1229. 1229. 1229. 1229. 1229. 1229. 1229. 1229. 1229. 1229. 1229. 1229. 1234. 1234. 1234. 1238. 1238. 1238. 1243. 1243. 1243. 1243. 1243. 1243. 1247. 1243. 1243. 1243. 1243. 1238. 1238. 1243. 1243. 1243. 1247. 1247. 1247. 1252. 1252. 1252. 1252. 1252. 1252. 1252. 1256. 1256. 1261. 1261. 1261. 1265. 1270. 1270. 1270. 1275. 1275. 1275. 1275. 1275. 1280. 1280. 1280. 1280. 1284. 1289. 1294. 1299. 1294. 1294. 1294. 1299. 1314. 1299. 1299. 1319. 1319. 1319. 1324. 1324. 1324. 1324. 1329. 1329. 1334. 1334. 1339. 1339. 1344. 1350. 1350. 1355. 1355. 1366. 1366. 0. 0. 0. 0. 0. 0. 0. 0. 0. 0. 0. 0. 0. 0. 0. 0. 0. 2788. 2765. 2788. 2765. 2765. 2765. 2743. 2743. 2743. 2722. 2701. 2701. 2701. 2722. 2701. 2701. 2701. 2701. 2701. 2680. 2680. 2680. 2680. 2701. 2701. 2701. 2701. 2701. 2680. 2680. 2680. 2680. 2680. 2659. 2659. 2659. 2659. 2659. 2659. 2659. 2659. 2659. 2639. 2639. 2619. 2619. 2619. 2619. 2619. 2619. 2599. 2599. 2599. 2599. 2599. 2599. 2599. 2599. 2599. 2599. 2599. 2599. 2580. 2580. 2580. 2580. 2580. 2560. 2560. 2560. 2560. 2560. 2580. 2580. 2542. 2542. 2542. 2542. 2523. 2523. 2523. 2523. 2523. 2523. 2523. 2523. 2523. 2523. 2523. 2523. 2523. 2523. 2523. 2505. 2487. 2487. 2505. 2505. 2505. 2505. 2505. 2505. 2505. 2505. 2505. 2505. 2505. 2487. 2487. 2469. 2469. 2469. 2469. 2469. 2451. 2434. 2434. 2434. 2434. 2434. 2434. 2434. 2451. 2451. 2451. 2434. 1677. 1686. 1702. 1686. 1319. 1694. 1686. 1686. 1677. 1677. 1669. 1669. 1661. 1661. 1661. 1661. 1661. 1661. 1661. 1645. 1653. 1645. 1638. 1645. 1645. 1645. 1645. 1653. 1645. 1645. 1653. 1275. 1275. 1653. 1653. 1653. 1638. 1645. 1645. 1653. 1645. 1256. 1256. 1247. 1247. 1252. 1252. 1252. 1252. 1252. 1252. 1252. 1252. 1252. 1252. 1247. 1247. 1247. 1247. 1252. 1252. 1247. 1247. 1238. 1238. 1234. 1234. 1229. 1229. 1234. 1229. 1234. 1229. 1229. 1225. 1225. 1221. 1216. 1216. 1216. 1216. 1216. 1221. 1542. 1542. 1200. 1200. 1195. 1195. 1200. 1204. 1204. 1204. 1204. 1212. 1208. 1208. 1208. 1204. 1200. 1522. 1522. 1187. 1187. 1179. 1179. 1179. 1179. 1175. 1175. 1175. 1175. 1175. 1175. 1171. 1171. 1171. 1171. 1171. 1167. 1167. 1167. 1167. 1163. 1163. 1163. 1163. 1167. 1163. 1163. 1159. 1159. 1155. 1155. 1148. 1148. 1151. 1151. 1151. 1151. 1151. 1151. 1151. 1148. 1144. 1148. 1148. 1144. 1148. 1148. 1148. 1148. 1148. 1148. 1151. 1151. 1148.
    0. 0. 0. 0. 0. 0. 0. 0. 0. 0. 0. 0. 0. 0. 0. 0. 0. 2701. 2701. 2680. 2680. 2659. 2599. 2542. 2542. 2523. 2523. 2523. 2542. 2523. 2542. 2542. 2523. 2542. 2560. 2560. 2560. 2560. 2580. 2580. 2580. 2580. 2580. 2599. 2599. 2619. 2619. 2619. 2619. 2619. 2639. 2659. 2659. 2680. 2680. 2680. 2680. 2659. 2680. 2680. 2680. 2680. 2680. 2701. 2722. 2722. 2743. 2743. 2743. 2743. 2743. 2743. 2743. 2743. 2743. 2765. 2765. 2765. 2765. 2765. 2788. 2788. 2810. 2810. 2834. 2834. 2834. 2834. 2834. 2834. 2834. 2834. 2834. 2857. 2857. 2857. 2857. 2857. 2857. 2881. 2451. 2434. 2434. 2451. 2434. 2417. 2400. 2384. 2384. 2367. 2367. 2367. 2367. 2384. 2384. 2400. 2400. 2400. 2400. 2417. 2417. 2417. 2417. 2417. 2417. 2417. 2417. 2417. 2434. 2434. 2434. 2434. 2434. 2434. 2434. 2434. 2434. 0. 1344. 0. 0. 0. 0. 0. 1319. 1319. 1314. 1319. 1314. 1314. 1314. 1309. 1309. 1309. 1304. 1299. 1294. 1294. 1289. 1280. 1275. 1275. 1275. 1275. 1275. 1275. 1265. 1270. 1275. 1265. 1265. 1265. 1261. 1256. 1256. 1252. 1252. 1252. 1247. 1252. 1252. 1252. 1252. 1252. 1252. 1252. 1247. 1247. 1247. 1243. 1243. 1238. 1234. 1234. 1234. 1234. 1234. 1234. 1234. 1234. 1234. 1234. 1229. 1229. 1229. 1229. 1229. 1229. 1229. 1229. 1229. 1229. 1225. 1229. 1229. 1229. 1229. 1229. 1229. 1229. 1229. 1229. 1225. 1225. 1229. 1229. 1229. 1229. 1229. 1229. 1229. 1229. 1225. 1225. 1225. 1225. 1225. 1221. 1225. 1225. 1225. 1225. 1225. 1225. 1225. 1225. 1229. 1229. 1229. 1229. 1225. 1225. 1225. 1225. 1225. 1229. 1229. 1229. 1229. 1229. 1229. 1234. 1234. 1234. 1234. 1238. 1238. 1238. 1243. 1234. 1234. 1234. 1234. 1238. 1238. 1238. 1234. 1238. 1238. 1243. 1243. 1243. 1243. 1247. 1247. 1247. 1247. 1247. 1247. 1252. 1252. 1256. 1256. 1256. 1256. 1261. 1261. 1265. 1265. 1265. 1270. 1270. 1270. 1270. 1275. 1275. 1275. 1275. 1280. 1280. 1284. 1294. 1294. 1289. 1289. 1294. 1294. 1294. 1294. 1294. 1294. 1299. 1314. 1319. 1319. 1319. 1319. 1324. 1324. 1324. 1329. 1334. 1334. 1334. 1339. 1344. 1350. 1350. 1355. 1360. 1360. 1366. 0. 0. 0. 0. 0. 0. 0. 0. 0. 0. 0. 0. 0. 0. 0. 0. 0. 2765. 2765. 2765. 2765. 2743. 2743. 2722. 2722. 2722. 2701. 2701. 2722. 2701. 2701. 2701. 2680. 2680. 2680. 2680. 2680. 2701. 2701. 2701. 2701. 2701. 2701. 2680. 2680. 2680. 2680. 2680. 2680. 2659. 2659. 2659. 2659. 2659. 2680. 2659. 2659. 2639. 2639. 2619. 2619. 2619. 2619. 2619. 2619. 2599. 2599. 2599. 2599. 2599. 2599. 2599. 2599. 2599. 2599. 2580. 2580. 2580. 2580. 2580. 2580. 2580. 2560. 2560. 2560. 2560. 2560. 2580. 2560. 2542. 2542. 2542. 2542. 2523. 2523. 2523. 2523. 2523. 2523. 2542. 2542. 2542. 2542. 2542. 2523. 2542. 2523. 2523. 2523. 2505. 2505. 2487. 2505. 2505. 2505. 2505. 2505. 2505. 2505. 2505. 2505. 2505. 2487. 2487. 2469. 2469. 2469. 2469. 2469. 2451. 2451. 2451. 2451. 2434. 2434. 2434. 2451. 2451. 2451. 2451. 2434. 2434. 1677. 1677. 1677. 1694. 1694. 1686. 1686. 1677. 1677. 1669. 1677. 1669. 1669. 1669. 1669. 1669. 1661. 1661. 1653. 1653. 1645. 1645. 1645. 1653. 1645. 1645. 1645. 1653. 1645. 1653. 1645. 1645. 1638. 1638. 1638. 1638. 1638. 1638. 1638. 1638. 1622. 1615. 1607. 1615. 1243. 1252. 1252. 1247. 1247. 1252. 1252. 1252. 1607. 1607. 1600. 1600. 1247. 1592. 1252. 1592. 1585. 1256. 1243. 1238. 1234. 1234. 1234. 1234. 1234. 1234. 1234. 1229. 1229. 1221. 1221. 1216. 1216. 1216. 1216. 1216. 1216. 1212. 1542. 1556. 1563. 1195. 1195. 1195. 1200. 1204. 1200. 1200. 1204. 1208. 1208. 1208. 1522. 1529. 1522. 1522. 1522. 1529. 1529. 1179. 1179. 1175. 1179. 1179. 1175. 1171. 1171. 1175. 1171. 1167. 1167. 1167. 1167. 1167. 1167. 1171. 1171. 1171. 1167. 1171. 1171. 1171. 1171. 1167. 1163. 1159. 1155. 1151. 1151. 1148. 1148. 1148. 1151. 1151. 1151. 1151. 1155. 1151. 1151. 1148. 1148. 1151. 1148. 1148. 1148. 1148. 1148. 1148. 1148. 1148. 1148. 1144.
    0. 0. 0. 0. 0. 0. 0. 0. 0. 0. 0. 0. 0. 0. 0. 0. 0. 2722. 2701. 2701. 2701. 2701. 2560. 2560. 2542. 2523. 2542. 2523. 2542. 2542. 2523. 2542. 2523. 2523. 2542. 2560. 2560. 2560. 2560. 2580. 2580. 2580. 2580. 2599. 2599. 2619. 2619. 2619. 2619. 2619. 2659. 2659. 2680. 2680. 2680. 2680. 2680. 2659. 2680. 2680. 2680. 2680. 2680. 2680. 2722. 2722. 2743. 2722. 2743. 2743. 2743. 2743. 2743. 2765. 2765. 2765. 2765. 2765. 2788. 2788. 2788. 2788. 2810. 2810. 2834. 2834. 2834. 2857. 2834. 2834. 2834. 2834. 2834. 2857. 2857. 2857. 2857. 2857. 2857. 2857. 2417. 2434. 2434. 2434. 2417. 2400. 2384. 2384. 2367. 2367. 2367. 2367. 2384. 2384. 2384. 2384. 2400. 2400. 2400. 2417. 2400. 2417. 2417. 2417. 2417. 2417. 2417. 2434. 2434. 2434. 2434. 2434. 2417. 2434. 2434. 1350. 1344. 1344. 1344. 1339. 1339. 1334. 1329. 1329. 1319. 1319. 1314. 1314. 1314. 1309. 1309. 1309. 1304. 1304. 1299. 1294. 1289. 1284. 1280. 1275. 1275. 1270. 1270. 1270. 1270. 1270. 1265. 1270. 1270. 1261. 1261. 1261. 1256. 1256. 1252. 1252. 1252. 1247. 1247. 1247. 1247. 1247. 1247. 1247. 1247. 1247. 1247. 1247. 1247. 1243. 1238. 1238. 1234. 1229. 1234. 1229. 1229. 1229. 1229. 1229. 1229. 1229. 1234. 1229. 1229. 1225. 1225. 1225. 1225. 1221. 1225. 1225. 1221. 1225. 1221. 1225. 1225. 1225. 1225. 1225. 1229. 1225. 1225. 1225. 1225. 1225. 1225. 1221. 1225. 1225. 1225. 1221. 1221. 1216. 1221. 1221. 1221. 1221. 1221. 1221. 1225. 1225. 1225. 1225. 1225. 1225. 1225. 1225. 1225. 1225. 1225. 1225. 1225. 1225. 1225. 1225. 1225. 1229. 1225. 1229. 1225. 1229. 1229. 1229. 1229. 1234. 1234. 1234. 1238. 1234. 1234. 1234. 1234. 1238. 1234. 1238. 1234. 1234. 1238. 1238. 1238. 1243. 1243. 1243. 1247. 1247. 1247. 1247. 1247. 1252. 1252. 1252. 1252. 1252. 1256. 1256. 1261. 1261. 1261. 1261. 1265. 1265. 1265. 1265. 1265. 1270. 1270. 1270. 1275. 1280. 1280. 1280. 1280. 1284. 1284. 1289. 1299. 1294. 1294. 1289. 1294. 1294. 1309. 1314. 1314. 1314. 1314. 1319. 1319. 1324. 1329. 1329. 1329. 1329. 1334. 1334. 1339. 1344. 1350. 1355. 1360. 1366. 1366. 1371. 1376. 1382. 0. 0. 0. 0. 0. 0. 0. 0. 0. 0. 0. 0. 0. 0. 0. 2743. 2722. 2743. 2743. 2722. 2722. 2701. 2701. 2701. 2701. 2701. 2680. 2680. 2680. 2680. 2680. 2680. 2701. 2701. 2701. 2701. 2701. 2701. 2701. 2680. 2680. 2680. 2680. 2680. 2680. 2680. 2680. 2680. 2659. 2659. 2659. 2659. 2639. 2639. 2619. 2619. 2619. 2619. 2619. 2619. 2619. 2599. 2599. 2599. 2599. 2599. 2599. 2580. 2580. 2580. 2580. 2580. 2580. 2580. 2580. 2580. 2560. 2580. 2580. 2560. 2560. 2560. 2580. 2560. 2560. 2560. 2542. 2542. 2542. 2542. 2523. 2523. 2523. 2542. 2523. 2542. 2523. 2523. 2523. 2542. 2523. 2523. 2523. 2523. 2523. 2505. 2505. 2487. 2505. 2487. 2505. 2505. 2487. 2487. 2487. 2487. 2487. 2487. 2487. 2487. 2487. 2487. 2469. 2487. 2469. 2469. 2451. 2451. 2434. 2451. 2434. 2434. 2469. 2469. 2451. 2451. 2434. 2434. 1686. 1686. 1686. 1694. 1694. 1694. 1686. 1677. 1677. 1677. 1677. 1669. 1669. 1669. 1669. 1669. 1669. 1669. 1661. 1661. 1653. 1653. 1661. 1653. 1653. 1653. 1653. 1653. 1653. 1653. 1638. 1638. 1638. 1638. 1630. 1638. 1638. 1630. 1638. 1630. 1622. 1615. 1615. 1615. 1615. 1615. 1615. 1615. 1615. 1615. 1607. 1607. 1607. 1607. 1600. 1600. 1600. 1592. 1592. 1592. 1585. 1585. 1585. 1592. 1592. 1234. 1234. 1234. 1234. 1234. 1234. 1571. 1571. 1571. 1571. 1571. 1571. 1571. 1571. 1563. 1556. 1563. 1549. 1563. 1563. 1563. 1549. 1549. 1195. 1200. 1200. 1204. 1204. 1208. 1208. 1204. 1522. 1522. 1522. 1515. 1515. 1529. 1529. 1536. 1529. 1175. 1179. 1179. 1171. 1171. 1171. 1175. 1171. 1167. 1171. 1167. 1171. 1171. 1167. 1171. 1171. 1171. 1167. 1175. 1175. 1171. 1171. 1163. 1167. 1163. 1155. 1155. 1155. 1148. 1148. 1148. 1148. 1151. 1151. 1151. 1151. 1151. 1148. 1148. 1148. 1148. 1144. 1144. 1148. 1148. 1144. 1144. 1144. 1148. 1148. 1140.
    0. 0. 0. 0. 0. 0. 0. 0. 0. 0. 0. 0. 0. 0. 0. 0. 0. 2722. 2722. 2701. 2701. 2765. 0. 0. 2560. 2542. 2542. 2523. 2542. 2542. 2542. 2542. 2523. 2523. 2542. 2523. 2560. 2560. 2560. 2580. 2580. 2580. 2580. 2599. 2599. 2599. 2619. 2619. 2639. 2659. 2659. 2659. 2680. 2680. 2680. 2680. 2680. 2659. 2680. 2680. 2680. 2680. 2680. 2680. 2701. 2722. 2722. 2722. 2722. 2743. 2743. 2743. 2743. 2743. 2765. 2765. 2765. 2765. 2788. 2788. 2788. 2788. 2810. 2810. 2834. 2834. 2834. 2834. 2834. 2834. 2834. 2834. 2834. 2857. 2857. 2857. 2857. 2857. 2857. 2857. 2857. 2417. 2417. 2417. 2417. 2400. 2384. 2384. 2367. 2367. 2367. 2367. 2384. 2384. 2384. 2384. 2400. 2400. 2400. 2417. 2417. 2417. 2417. 2417. 2417. 2417. 2417. 2434. 2434. 2434. 2434. 2434. 2417. 2434. 1344. 1344. 1339. 1339. 1339. 1339. 1334. 1329. 1329. 1324. 1319. 1319. 1314. 1314. 1314. 1309. 1304. 1304. 1299. 1299. 1294. 1289. 1280. 1280. 1275. 1270. 1270. 1270. 1270. 1265. 1265. 1261. 1261. 1261. 1261. 1256. 1256. 1256. 1256. 1252. 1247. 1247. 1247. 1243. 1243. 1243. 1243. 1243. 1243. 1243. 1243. 1243. 1243. 1247. 1243. 1234. 1234. 1234. 1229. 1229. 1229. 1229. 1229. 1229. 1225. 1225. 1225. 1221. 1221. 1225. 1225. 1221. 1221. 1221. 1221. 1221. 1221. 1221. 1216. 1221. 1221. 1221. 1221. 1221. 1221. 1221. 1225. 1221. 1221. 1221. 1221. 1221. 1221. 1221. 1221. 1225. 1221. 1221. 1216. 1216. 1216. 1221. 1216. 1216. 1221. 1221. 1221. 1225. 1225. 1221. 1225. 1225. 1225. 1225. 1221. 1221. 1221. 1221. 1225. 1221. 1221. 1225. 1225. 1225. 1225. 1225. 1225. 1229. 1229. 1225. 1229. 1234. 1234. 1229. 1234. 1229. 1229. 1229. 1234. 1238. 1238. 1238. 1229. 1229. 1234. 1238. 1234. 1238. 1238. 1243. 1243. 1243. 1243. 1243. 1247. 1247. 1247. 1252. 1252. 1252. 1252. 1256. 1256. 1256. 1261. 1256. 1261. 1261. 1261. 1265. 1261. 1265. 1265. 1265. 1270. 1275. 1280. 1280. 1275. 1280. 1280. 1294. 1299. 1294. 1289. 1289. 1289. 1289. 1294. 1304. 1304. 1309. 1314. 1314. 1319. 1319. 1324. 1324. 1329. 1329. 1329. 1334. 1334. 1344. 1350. 1355. 1355. 1366. 1366. 1371. 1376. 1382. 1388. 1393. 1393. 0. 0. 0. 0. 0. 0. 0. 0. 0. 0. 0. 0. 0. 2722. 2722. 2743. 2722. 2701. 2701. 2701. 2701. 2701. 2701. 2680. 2701. 2680. 2680. 2680. 2680. 2701. 2701. 2701. 2701. 2701. 2701. 2701. 2680. 2680. 2680. 2680. 2680. 2680. 2680. 2680. 2680. 2639. 2639. 2659. 2639. 2659. 2639. 2639. 2619. 2619. 2619. 2619. 2619. 2619. 2599. 2599. 2599. 2599. 2599. 2580. 2580. 2580. 2580. 2580. 2580. 2580. 2580. 2580. 2580. 2560. 2580. 2560. 2560. 2560. 2560. 2580. 2560. 2560. 2560. 2542. 2542. 2542. 2542. 2523. 2542. 2523. 2523. 2523. 2523. 2523. 2523. 2542. 2542. 2523. 2523. 2523. 2523. 2523. 2505. 2487. 2487. 2505. 2505. 2487. 2487. 2487. 2487. 2487. 2487. 2487. 2487. 2487. 2487. 2487. 2487. 2469. 2469. 2469. 2451. 2469. 2451. 2434. 2434. 2451. 2451. 2451. 2469. 2451. 2469. 2451. 2451. 2434. 1686. 1686. 1686. 1694. 1694. 1694. 1686. 1686. 1677. 1686. 1677. 1677. 1677. 1677. 1677. 1669. 1669. 1669. 1669. 1669. 1661. 1661. 1661. 1661. 1661. 1661. 1653. 1653. 1645. 1638. 1638. 1630. 1630. 1630. 1630. 1630. 1630. 1630. 1622. 1622. 1615. 1615. 1615. 1615. 1615. 1615. 1615. 1615. 1615. 1607. 1607. 1600. 1607. 1600. 1592. 1600. 1592. 1592. 1585. 1585. 1585. 1585. 1585. 1592. 1585. 1578. 1238. 1585. 1578. 1571. 1571. 1578. 1571. 1578. 1571. 1571. 1571. 1571. 1571. 1563. 1563. 1563. 1563. 1563. 1563. 1563. 1549. 1556. 1549. 1549. 1208. 1529. 1536. 1536. 1522. 1522. 1522. 1522. 1522. 1515. 1529. 1522. 1529. 1529. 1522. 1175. 1175. 1522. 1171. 1171. 1175. 1171. 1171. 1171. 1171. 1171. 1171. 1167. 1171. 1171. 1171. 1167. 1175. 1483. 1483. 1167. 1167. 1167. 1159. 1159. 1155. 1155. 1148. 1148. 1151. 1151. 1151. 1489. 1483. 1489. 1151. 1483. 1148. 1155. 1155. 1140. 1140. 1148. 1148. 1144. 1144. 1144. 1144. 1144. 0.
    0. 0. 0. 0. 0. 0. 0. 0. 0. 0. 0. 0. 0. 0. 0. 0. 2743. 2765. 2743. 2743. 2765. 0. 0. 0. 2560. 2542. 2542. 2542. 2542. 2542. 2542. 2560. 2542. 2523. 2523. 2523. 2560. 2580. 2580. 2560. 2560. 2560. 2560. 2599. 2599. 2599. 2599. 2619. 2639. 2659. 2659. 2659. 2659. 2659. 2680. 2680. 2680. 2659. 2659. 2659. 2680. 2680. 2680. 2680. 2701. 2722. 2722. 2722. 2722. 2743. 2743. 2743. 2743. 2743. 2765. 2765. 2765. 2765. 2788. 2788. 2788. 2810. 2810. 2810. 2834. 2834. 2834. 2834. 2834. 2834. 2834. 2834. 2834. 2857. 2857. 2857. 2857. 2857. 2857. 2857. 2857. 2417. 2417. 2417. 2417. 2400. 2384. 2384. 2367. 2367. 2367. 2367. 2367. 2384. 2384. 2384. 2400. 2400. 2400. 2417. 2400. 2417. 2417. 2417. 2417. 2417. 2417. 2434. 2417. 2417. 2417. 2417. 2417. 2434. 1339. 1339. 1334. 1334. 1334. 1334. 1329. 1324. 1324. 1319. 1314. 1314. 1309. 1309. 1309. 1299. 1294. 1294. 1289. 1289. 1284. 1275. 1275. 1275. 1270. 1265. 1265. 1265. 1265. 1265. 1265. 1256. 1256. 1256. 1261. 1256. 1256. 1252. 1252. 1247. 1247. 1243. 1243. 1243. 1238. 1243. 1243. 1243. 1243. 1243. 1243. 1243. 1243. 1243. 1234. 1229. 1229. 1229. 1229. 1229. 1229. 1225. 1225. 1225. 1225. 1225. 1221. 1221. 1221. 1221. 1221. 1216. 1216. 1216. 1216. 1216. 1216. 1216. 1216. 1221. 1216. 1216. 1216. 1221. 1221. 1221. 1221. 1221. 1221. 1221. 1221. 1221. 1216. 1216. 1221. 1221. 1216. 1216. 1212. 1216. 1216. 1212. 1216. 1216. 1216. 1216. 1221. 1221. 1221. 1221. 1221. 1221. 1221. 1221. 1216. 1216. 1216. 1216. 1221. 1221. 1221. 1221. 1221. 1221. 1221. 1221. 1221. 1225. 1225. 1225. 1225. 1225. 1229. 1229. 1229. 1229. 1229. 1229. 1229. 1234. 1234. 1229. 1229. 1229. 1229. 1229. 1229. 1234. 1234. 1238. 1238. 1238. 1238. 1238. 1243. 1243. 1243. 1247. 1247. 1247. 1247. 1252. 1252. 1252. 1256. 1256. 1256. 1261. 1261. 1261. 1261. 1261. 1261. 1265. 1265. 1275. 1275. 1280. 1275. 1280. 1280. 1284. 1284. 1284. 1284. 1284. 1289. 1289. 1289. 1289. 1294. 1304. 1309. 1309. 1314. 1314. 1319. 1319. 1324. 1319. 1324. 1324. 1334. 1334. 1344. 1350. 1355. 1366. 1366. 1371. 1371. 1376. 1382. 1388. 1393. 1393. 0. 0. 0. 0. 0. 0. 0. 0. 0. 0. 0. 0. 2722. 2722. 2743. 2722. 2722. 2701. 2701. 2701. 2701. 2701. 2701. 2701. 2701. 2680. 2680. 2701. 2701. 2701. 2701. 2701. 2701. 2680. 2680. 2680. 2680. 2680. 2680. 2680. 2680. 2680. 2680. 2639. 2639. 2639. 2639. 2639. 2659. 2639. 2619. 2619. 2619. 2619. 2619. 2619. 2619. 2599. 2599. 2599. 2580. 2599. 2580. 2580. 2580. 2580. 2580. 2580. 2580. 2580. 2580. 2580. 2580. 2580. 2580. 2560. 2560. 2580. 2580. 2580. 2580. 2560. 2560. 2542. 2542. 2542. 2542. 2542. 2542. 2542. 2523. 2542. 2542. 2523. 2542. 2542. 2523. 2523. 2523. 2523. 2523. 2505. 2487. 2505. 2505. 2505. 2487. 2487. 2487. 2487. 2487. 2487. 2487. 2469. 2469. 2469. 2487. 2487. 2469. 2487. 2469. 2451. 2469. 2451. 2434. 2434. 2434. 2451. 2451. 2451. 2451. 2451. 2434. 2434. 2434. 2434. 2417. 1686. 1694. 1694. 1694. 1686. 1694. 1686. 1694. 1686. 1686. 1677. 1686. 1686. 1677. 1677. 1677. 1677. 1677. 1677. 1669. 1669. 1661. 1661. 1661. 1661. 1653. 1645. 1638. 1638. 1638. 1630. 1630. 1630. 1630. 1630. 1630. 1630. 1630. 1622. 1622. 1622. 1622. 1615. 1615. 1615. 1615. 1615. 1607. 1607. 1600. 1607. 1600. 1592. 1592. 1592. 1585. 1585. 1585. 1585. 1592. 1592. 1592. 1592. 1585. 1585. 1585. 1585. 1578. 1578. 1578. 1578. 1578. 1585. 1585. 1571. 1571. 1578. 1563. 1563. 1563. 1563. 1563. 1563. 1563. 1556. 1556. 1556. 1556. 1542. 1536. 1536. 1536. 1536. 1536. 1536. 1529. 1529. 1522. 1529. 1522. 1529. 1522. 1522. 1529. 1522. 1522. 1509. 1496. 1502. 1489. 1477. 1477. 1477. 1483. 1483. 1163. 1167. 1167. 1496. 1496. 1496. 1489. 1489. 1483. 1477. 1167. 1163. 1159. 1159. 1159. 1148. 1148. 1496. 1489. 1483. 1483. 1483. 1489. 1489. 1483. 1483. 1477. 1477. 1470. 1470. 1464. 1446. 1446. 1446. 1446. 1452. 0. 0.
    0. 0. 0. 0. 0. 0. 0. 0. 0. 0. 0. 0. 0. 0. 0. 0. 2743. 2743. 2743. 2743. 2743. 0. 0. 2523. 2523. 0. 2523. 2523. 2542. 2542. 2542. 2107. 2107. 2107. 2107. 2120. 2120. 2120. 2147. 2580. 2580. 2599. 2599. 2599. 2599. 2599. 2599. 2619. 2659. 2659. 2659. 2659. 2680. 2680. 2680. 2680. 2680. 2659. 2680. 2680. 2659. 2680. 2680. 2680. 2701. 2701. 2743. 2722. 2743. 2743. 2743. 2743. 2743. 2743. 2743. 2765. 2765. 2765. 2765. 2765. 2788. 2788. 2788. 2810. 2834. 2834. 2834. 2834. 2834. 2834. 2834. 2834. 2834. 2857. 2857. 2857. 2881. 2857. 2857. 2881. 2881. 2881. 2417. 2417. 2417. 2400. 2384. 2384. 2367. 2367. 2367. 2367. 2367. 2367. 2384. 2384. 2384. 2400. 2400. 2400. 2400. 2400. 2417. 2417. 2417. 2417. 2417. 2417. 2417. 2417. 2417. 2417. 1339. 1339. 1339. 1334. 1329. 1329. 1329. 1324. 1324. 1319. 1314. 1314. 1309. 1309. 1304. 1299. 1294. 1289. 1284. 1280. 1280. 1284. 1280. 1275. 1275. 1270. 1270. 1265. 1265. 1265. 1265. 1261. 1261. 1256. 1256. 1256. 1256. 1252. 1252. 1243. 1247. 1243. 1243. 1238. 1238. 1238. 1238. 1238. 1238. 1238. 1238. 1238. 1238. 1238. 1238. 1238. 1229. 1229. 1229. 1229. 1225. 1225. 1225. 1225. 1221. 1225. 1221. 1221. 1221. 1216. 1216. 1216. 1216. 1216. 1216. 1216. 1216. 1216. 1216. 1216. 1212. 1216. 1216. 1216. 1216. 1216. 1216. 1216. 1221. 1216. 1216. 1216. 1216. 1216. 1216. 1216. 1216. 1216. 1212. 1216. 1212. 1212. 1212. 1212. 1212. 1212. 1216. 1216. 1216. 1216. 1221. 1216. 1216. 1212. 1216. 1216. 1212. 1212. 1216. 1216. 1216. 1216. 1216. 1216. 1216. 1221. 1216. 1221. 1216. 1225. 1225. 1221. 1225. 1225. 1225. 1225. 1225. 1225. 1225. 1225. 1225. 1229. 1229. 1234. 1225. 1221. 1229. 1229. 1229. 1229. 1234. 1234. 1238. 1238. 1238. 1238. 1238. 1243. 1243. 1243. 1243. 1243. 1243. 1247. 1247. 1247. 1252. 1252. 1256. 1256. 1256. 1261. 1261. 1261. 1261. 1265. 1265. 1270. 1275. 1275. 1275. 1280. 1280. 1284. 1280. 1280. 1284. 1284. 1284. 1284. 1294. 1294. 1289. 1299. 1304. 1304. 1309. 1309. 1314. 1314. 1319. 1314. 1319. 1319. 1329. 1329. 1334. 1344. 1350. 1360. 1366. 1366. 1371. 1376. 1376. 1382. 1388. 1393. 0. 0. 0. 0. 0. 0. 0. 0. 0. 0. 0. 0. 0. 2722. 2722. 2722. 2722. 2722. 2701. 2701. 2701. 2701. 2701. 2701. 2701. 2701. 2701. 2701. 2701. 2701. 2701. 2701. 2701. 2680. 2680. 2680. 2680. 2680. 2680. 2680. 2680. 2680. 2680. 2659. 2639. 2659. 2659. 2639. 2639. 2639. 2639. 2619. 2639. 2619. 2619. 2619. 2619. 2599. 2599. 2599. 2580. 2580. 2580. 2580. 2580. 2580. 2580. 2580. 2580. 2580. 2580. 2580. 2560. 2560. 2560. 2560. 2560. 2580. 2580. 2580. 2580. 2580. 2560. 2542. 2542. 2542. 2523. 2542. 2542. 2542. 2523. 2542. 2542. 2542. 2542. 2542. 2523. 2523. 2523. 2523. 2505. 2487. 2487. 2487. 2505. 2487. 2487. 2487. 2487. 2487. 2487. 2487. 2487. 2469. 2487. 2487. 2487. 2487. 2469. 2487. 2469. 2451. 2451. 2451. 2451. 2434. 2451. 2434. 2451. 2434. 2434. 2434. 2434. 2434. 2417. 2417. 2417. 2417. 1702. 1702. 1702. 1702. 1702. 1702. 1702. 1694. 1694. 1686. 1686. 1694. 1686. 1686. 1686. 1694. 1686. 1686. 1677. 1669. 1669. 1669. 1661. 1661. 1653. 1653. 1638. 1638. 1638. 1630. 1638. 1638. 1638. 1638. 1638. 1630. 1630. 1630. 1630. 1622. 1622. 1622. 1622. 1622. 1615. 1615. 1615. 1615. 1607. 1607. 1600. 1592. 1592. 1592. 1585. 1585. 1592. 1592. 1592. 1592. 1592. 1592. 1592. 1585. 1585. 1585. 1578. 1578. 1585. 1585. 1585. 1592. 1585. 1585. 1578. 1578. 1571. 1571. 1563. 1563. 1563. 1563. 1563. 1563. 1563. 1563. 1556. 1542. 1542. 1542. 1542. 1542. 1536. 1536. 1529. 1536. 1536. 1536. 1529. 1529. 1529. 1522. 1529. 1522. 1522. 1509. 1496. 1502. 1489. 1477. 1477. 1477. 1483. 1483. 1489. 1483. 1489. 1489. 1496. 1496. 1496. 1489. 1489. 1483. 1483. 1483. 1645. 1645. 1645. 1496. 1496. 1496. 1489. 1489. 1483. 1489. 1489. 1489. 1483. 1489. 1477. 1470. 1470. 1470. 1464. 1446. 1446. 1452. 1452. 1452. 1458. 1458.
    0. 0. 0. 0. 0. 0. 0. 0. 0. 0. 0. 0. 0. 0. 0. 0. 0. 2765. 2788. 2788. 2788. 0. 0. 0. 0. 0. 2523. 2542. 2542. 2542. 2542. 2095. 2095. 2107. 2107. 2120. 2120. 2120. 2120. 2120. 2120. 0. 2147. 2147. 2147. 2147. 2147. 2160. 2160. 2160. 2069. 2069. 2680. 2680. 2680. 2680. 2680. 2659. 2659. 2659. 2659. 2659. 2659. 2680. 2680. 2701. 2701. 2743. 2743. 2743. 2743. 2743. 2743. 2743. 2743. 2743. 2765. 2743. 2765. 2765. 2788. 2788. 2788. 2810. 2810. 2834. 2834. 2857. 2834. 2857. 2834. 2834. 2834. 2857. 2857. 2857. 2881. 2881. 2857. 2881. 2881. 2881. 2857. 2400. 2400. 2400. 2384. 2400. 2384. 2367. 2384. 2367. 2367. 2367. 2367. 2384. 2384. 2384. 2384. 2400. 2400. 2400. 2400. 2400. 2417. 2417. 2417. 2417. 2417. 2417. 2417. 2417. 1329. 1329. 1329. 1324. 1324. 1319. 1319. 1319. 1314. 1309. 1309. 1309. 1304. 1299. 1299. 1294. 1289. 1275. 1275. 1275. 1275. 1275. 1270. 1270. 1270. 1265. 1265. 1261. 1261. 1261. 1261. 1261. 1256. 1256. 1256. 1252. 1252. 1252. 1247. 1238. 1238. 1238. 1238. 1238. 1234. 1234. 1234. 1234. 1234. 1234. 1234. 1234. 1234. 1234. 1234. 1234. 1225. 1221. 1225. 1225. 1221. 1221. 1221. 1221. 1221. 1221. 1216. 1216. 1216. 1216. 1216. 1216. 1216. 1212. 1212. 1212. 1212. 1212. 1212. 1212. 1212. 1212. 1212. 1212. 1212. 1212. 1212. 1216. 1216. 1216. 1216. 1216. 1216. 1212. 1212. 1212. 1212. 1212. 1212. 1212. 1208. 1208. 1212. 1212. 1212. 1212. 1212. 1212. 1212. 1212. 1212. 1212. 1212. 1212. 1212. 1212. 1212. 1208. 1212. 1212. 1212. 1216. 1212. 1216. 1212. 1216. 1212. 1216. 1212. 1221. 1221. 1216. 1225. 1225. 1225. 1225. 1225. 1225. 1221. 1221. 1225. 1229. 1229. 1229. 1225. 1225. 1225. 1225. 1225. 1225. 1229. 1229. 1234. 1234. 1234. 1238. 1238. 1238. 1243. 1243. 1243. 1243. 1243. 1243. 1243. 1243. 1247. 1252. 1256. 1256. 1256. 1256. 1256. 1261. 1261. 1265. 1265. 1270. 1270. 1275. 1275. 1275. 1280. 1280. 1275. 1275. 1280. 1280. 1280. 1280. 1289. 1289. 1294. 1294. 1294. 1299. 1304. 1304. 1309. 1309. 1314. 1314. 1314. 1314. 1319. 1324. 1329. 1334. 1344. 1350. 1360. 1366. 1366. 1376. 1376. 1382. 1388. 1393. 1399. 0. 0. 0. 0. 0. 0. 0. 0. 0. 0. 0. 0. 0. 0. 2722. 2722. 2722. 2701. 2701. 2701. 2701. 2701. 2701. 2701. 2701. 2701. 2701. 2701. 2701. 2701. 2701. 2680. 2680. 2680. 2680. 2680. 2680. 2680. 2680. 2680. 2680. 2680. 2639. 2639. 2659. 2639. 2639. 2639. 2639. 2639. 2639. 2639. 2619. 2619. 2619. 2619. 2599. 2599. 2599. 2580. 2580. 2580. 2580. 2580. 2580. 2580. 2580. 2580. 2580. 2580. 2580. 2580. 2580. 2580. 2560. 2580. 2580. 2580. 2560. 2560. 2560. 2560. 2542. 2523. 2542. 2523. 2523. 2523. 2523. 2523. 2523. 2523. 2523. 2523. 2523. 2523. 2523. 2523. 2523. 2505. 2487. 2487. 2487. 2505. 2487. 2487. 2487. 2487. 2487. 2487. 2487. 2487. 2487. 2487. 2487. 2469. 2487. 2469. 2469. 2469. 2469. 2469. 2451. 2434. 2434. 2434. 2434. 2434. 2434. 2434. 2434. 2434. 2434. 2434. 2434. 2417. 2417. 2417. 2417. 1719. 1711. 1711. 1711. 1711. 1702. 1702. 1694. 1694. 1694. 1694. 1694. 1694. 1694. 1694. 1694. 1686. 1686. 1677. 1677. 1669. 1661. 1653. 1645. 1638. 1638. 1638. 1638. 1638. 1630. 1638. 1630. 1638. 1630. 1630. 1630. 1630. 1630. 1630. 1622. 1622. 1622. 1622. 1622. 1615. 1615. 1615. 1615. 1600. 1592. 1592. 1592. 1592. 1592. 1592. 1592. 1592. 1592. 1592. 1592. 1592. 1592. 1592. 1592. 1585. 1585. 1585. 1592. 1592. 1592. 1592. 1592. 1578. 1578. 1571. 1571. 1571. 1571. 1571. 1571. 1571. 1563. 1571. 1563. 1563. 1549. 1542. 1542. 1542. 1542. 1542. 1542. 1536. 1536. 1536. 1529. 1529. 1529. 1529. 1529. 1529. 1522. 1522. 1496. 1496. 1496. 1483. 1477. 1477. 1477. 1483. 1483. 1489. 1483. 1489. 1489. 1496. 1496. 1496. 1489. 1496. 1496. 1496. 1638. 1645. 1645. 1645. 1645. 1496. 1496. 1496. 1496. 1489. 1489. 1489. 1489. 1477. 1483. 1477. 1470. 1470. 1470. 1464. 1452. 1446. 1452. 1452. 1470. 1470. 1458.
    0. 0. 0. 0. 0. 0. 0. 0. 0. 0. 0. 0. 2095. 2082. 2069. 2057. 2045. 0. 2045. 2021. 0. 0. 0. 0. 0. 2542. 2542. 2542. 2542. 2542. 2542. 2095. 2095. 2095. 2095. 2107. 2107. 2120. 2120. 2120. 2120. 0. 0. 2147. 2147. 2147. 2147. 2160. 2160. 2069. 2069. 2069. 2069. 2107. 2107. 2680. 2680. 2639. 2659. 2639. 2639. 2659. 2659. 2680. 2680. 2701. 2174. 2743. 2743. 2765. 2765. 2765. 2765. 2765. 2765. 2765. 2765. 2765. 2765. 2765. 2788. 2788. 2810. 2810. 2810. 2834. 2834. 2857. 2834. 2834. 2857. 2857. 2857. 2857. 2857. 2881. 2857. 2881. 2857. 2881. 2881. 2881. 2881. 0. 0. 2400. 2384. 2384. 2384. 2367. 2384. 2367. 2367. 2367. 2384. 2384. 2384. 2384. 2384. 2400. 2400. 2400. 2400. 2400. 2417. 2417. 2417. 2400. 2400. 2400. 2400. 2400. 2400. 1324. 1324. 1314. 1319. 1314. 1314. 1314. 1309. 1304. 1304. 1304. 1299. 1294. 1289. 1289. 1275. 1275. 1275. 1270. 1270. 1270. 1265. 1265. 1261. 1261. 1261. 1261. 1256. 1256. 1256. 1256. 1256. 1256. 1252. 1252. 1252. 1243. 1238. 1238. 1238. 1234. 1234. 1234. 1234. 1234. 1229. 1234. 1234. 1234. 1234. 1234. 1234. 1229. 1229. 1229. 1221. 1221. 1221. 1221. 1221. 1221. 1216. 1216. 1216. 1216. 1216. 1216. 1212. 1212. 1212. 1212. 1212. 1212. 1212. 1208. 1212. 1212. 1208. 1208. 1208. 1208. 1208. 1208. 1208. 1212. 1212. 1212. 1212. 1212. 1212. 1212. 1212. 1208. 1208. 1208. 1208. 1208. 1212. 1212. 1208. 1208. 1208. 1208. 1208. 1208. 1212. 1208. 1212. 1212. 1212. 1212. 1208. 1208. 1208. 1208. 1208. 1208. 1208. 1208. 1212. 1212. 1212. 1212. 1212. 1212. 1212. 1212. 1212. 1212. 1212. 1212. 1212. 1216. 1216. 1221. 1225. 1225. 1221. 1225. 1221. 1225. 1225. 1225. 1221. 1221. 1225. 1225. 1225. 1225. 1225. 1229. 1229. 1234. 1234. 1234. 1238. 1238. 1238. 1238. 1243. 1243. 1243. 1243. 1243. 1243. 1243. 1247. 1252. 1252. 1256. 1256. 1256. 1261. 1261. 1261. 1265. 1265. 1265. 1270. 1275. 1275. 1275. 1275. 1275. 1275. 1280. 1275. 1275. 1275. 1280. 1284. 1289. 1289. 1294. 1294. 1299. 1304. 1304. 1309. 1309. 1309. 1314. 1314. 1314. 1319. 1324. 1329. 1339. 1350. 1355. 1360. 1366. 1371. 1371. 1376. 1382. 1371. 1371. 0. 0. 0. 0. 0. 0. 0. 0. 0. 0. 0. 0. 0. 2722. 2722. 2722. 2722. 2701. 2701. 2701. 2701. 2701. 2701. 2701. 2701. 2701. 2701. 2701. 2701. 2701. 2680. 2680. 2680. 2680. 2680. 2680. 2680. 2680. 2680. 2659. 2659. 2659. 2659. 2639. 2659. 2639. 2639. 2639. 2639. 2639. 2619. 2639. 2619. 2619. 2619. 2619. 2599. 2580. 2599. 2580. 2580. 2580. 2580. 2580. 2580. 2580. 2580. 2580. 2580. 2580. 2580. 2580. 2580. 2580. 2580. 2580. 2580. 2580. 2560. 2560. 2560. 2542. 2542. 2542. 2542. 2542. 2542. 2542. 2542. 2542. 2542. 2542. 2523. 2523. 2523. 2523. 2523. 2523. 2523. 2505. 2487. 2487. 2487. 2487. 2487. 2487. 2487. 2487. 2487. 2487. 2487. 2487. 2469. 2469. 2469. 2469. 2469. 2469. 2469. 2469. 2469. 2451. 2451. 2451. 2434. 2434. 2434. 2434. 2434. 2434. 2434. 2434. 2434. 2434. 2434. 2434. 2417. 2434. 2434. 2434. 2417. 1719. 1719. 1719. 1711. 1711. 1702. 1702. 1702. 1702. 1702. 1702. 1702. 1702. 1694. 1694. 1686. 1686. 1677. 1669. 1669. 1653. 1645. 1638. 1638. 1638. 1638. 1638. 1638. 1638. 1638. 1638. 1630. 1630. 1630. 1630. 1630. 1622. 1622. 1622. 1622. 1622. 1622. 1615. 1622. 1615. 1615. 1600. 1592. 1592. 1592. 1592. 1592. 1592. 1592. 1592. 1592. 1592. 1592. 1592. 1592. 1592. 1592. 1585. 1585. 1585. 1585. 1592. 1592. 1592. 1592. 1592. 1592. 1571. 1571. 1571. 1571. 1571. 1571. 1571. 1571. 1571. 1571. 1571. 1556. 1556. 1556. 1549. 1556. 1549. 1556. 1542. 1542. 1542. 1536. 1536. 1536. 1529. 1529. 1529. 1529. 1529. 0. 1477. 1477. 1477. 1470. 1470. 1470. 1483. 1489. 1489. 1489. 1496. 1496. 1496. 1496. 1661. 1653. 1653. 1502. 1638. 1638. 1638. 1645. 1645. 1645. 1638. 1645. 1645. 1645. 1489. 1489. 1489. 1483. 1477. 1477. 1470. 1452. 1458. 1470. 1470. 1470. 1458. 1452. 1470. 1470. 1470. 1458.
    0. 0. 0. 0. 0. 0. 0. 0. 0. 0. 0. 0. 2069. 2057. 2057. 2045. 2045. 2045. 2021. 2021. 0. 2009. 2009. 2009. 2009. 2009. 2580. 2580. 2580. 2045. 2069. 2069. 2095. 2095. 2095. 2107. 2107. 2107. 2107. 2107. 2107. 2082. 2082. 2147. 2147. 2133. 2133. 2133. 2069. 2069. 2069. 2069. 2069. 2082. 2107. 2107. 2095. 2082. 2082. 2095. 2107. 2107. 2659. 2133. 2174. 2174. 2160. 2174. 2743. 2743. 2743. 2743. 2743. 2743. 2743. 2743. 2743. 2743. 2765. 2765. 2788. 2810. 2788. 2810. 2834. 2857. 2857. 2857. 2857. 2857. 2857. 2857. 2857. 2857. 2881. 2881. 2905. 2881. 2881. 2881. 2881. 2881. 2881. 0. 0. 0. 0. 0. 2367. 2367. 2384. 2367. 2367. 2367. 2367. 2367. 2384. 2384. 2384. 2384. 2384. 2400. 2400. 2400. 2417. 2417. 2417. 2400. 2400. 2400. 2400. 2400. 1319. 1319. 1319. 1314. 1314. 1314. 1314. 1309. 1304. 1304. 1299. 1299. 1294. 1289. 1284. 1275. 1270. 1275. 1270. 1270. 1270. 1256. 1256. 1252. 1252. 1256. 1256. 1256. 1256. 1256. 1256. 1252. 1252. 1252. 1247. 1243. 1243. 1238. 1238. 1234. 1234. 1234. 1234. 1234. 1234. 1225. 1225. 1225. 1229. 1225. 1229. 1229. 1229. 1229. 1225. 1225. 1216. 1216. 1221. 1216. 1216. 1216. 1216. 1212. 1212. 1212. 1212. 1212. 1212. 1212. 1212. 1208. 1208. 1208. 1208. 1208. 1208. 1208. 1204. 1204. 1204. 1204. 1204. 1204. 1208. 1208. 1208. 1208. 1208. 1208. 1212. 1212. 1208. 1208. 1208. 1208. 1204. 1208. 1208. 1208. 1208. 1208. 1208. 1208. 1208. 1208. 1208. 1208. 1212. 1212. 1212. 1208. 1208. 1208. 1208. 1208. 1208. 1204. 1208. 1208. 1208. 1212. 1208. 1208. 1212. 1212. 1212. 1212. 1212. 1212. 1212. 1212. 1212. 1212. 1216. 1216. 1216. 1221. 1216. 1225. 1225. 1225. 1225. 1225. 1221. 1221. 1225. 1225. 1225. 1225. 1225. 1225. 1225. 1229. 1229. 1225. 1229. 1234. 1238. 1238. 1238. 1238. 1238. 1238. 1238. 1238. 1243. 1243. 1252. 1252. 1252. 1256. 1256. 1256. 1261. 1261. 1261. 1265. 1265. 1270. 1270. 1275. 1275. 1275. 1275. 1270. 1275. 1275. 1275. 1275. 1280. 1284. 1284. 1284. 1289. 1289. 1294. 1294. 1299. 1304. 1304. 1304. 1309. 1309. 1309. 1314. 1319. 1324. 1334. 1344. 1355. 1355. 1360. 1366. 1366. 1371. 1376. 1371. 1371. 1371. 1371. 0. 0. 0. 0. 0. 0. 0. 0. 0. 0. 0. 0. 0. 0. 0. 0. 2701. 2701. 2701. 2701. 2701. 2701. 2701. 2701. 2680. 2701. 2701. 2680. 2680. 2680. 2680. 2680. 2680. 2680. 2680. 2680. 2680. 2659. 2659. 2659. 2659. 2639. 2659. 2659. 2639. 2639. 2639. 2619. 2639. 2639. 2619. 2619. 2619. 2619. 2580. 2580. 2580. 2580. 2599. 2580. 2580. 2580. 2580. 2580. 2580. 2580. 2580. 2580. 2580. 2580. 2580. 2580. 2580. 2580. 2580. 2580. 2560. 2560. 2560. 2542. 2542. 2542. 2542. 2542. 2542. 2542. 2542. 2542. 2542. 2542. 2523. 2542. 2523. 2523. 2523. 2523. 2523. 2523. 2487. 2487. 2487. 2487. 2487. 2487. 2487. 2487. 2487. 2487. 2487. 2487. 2487. 2469. 2469. 2469. 2469. 2469. 2469. 2469. 2469. 2451. 2451. 2451. 2434. 2434. 2434. 2434. 2434. 2434. 2434. 2434. 2434. 2434. 2434. 2434. 2434. 2434. 2434. 2434. 2417. 2417. 1728. 1728. 1719. 1719. 1711. 1711. 1711. 1702. 1711. 1702. 1702. 1702. 1702. 1694. 1694. 1694. 1686. 1677. 1669. 1661. 1645. 1645. 1638. 1638. 1638. 1638. 1638. 1638. 1638. 1638. 1638. 1638. 1630. 1630. 1622. 1622. 1622. 1622. 1622. 1622. 1622. 1622. 1622. 1622. 1622. 1607. 1600. 1592. 1592. 1592. 1592. 1592. 1592. 1592. 1592. 1592. 1592. 1592. 1592. 1592. 1592. 1592. 1592. 1592. 1592. 1600. 1600. 1600. 1600. 1592. 1592. 1578. 1578. 1578. 1578. 1578. 1578. 1578. 1578. 1578. 1578. 1571. 1563. 1563. 1563. 1556. 1563. 1556. 1556. 1549. 1542. 1542. 1542. 1542. 1536. 1536. 1536. 1536. 0. 1536. 0. 0. 0. 1470. 1470. 1470. 1470. 1477. 1483. 1489. 1489. 1496. 1496. 1496. 1653. 1653. 1653. 1653. 1653. 1645. 1638. 1638. 1645. 1645. 1645. 1638. 1645. 1645. 1638. 1600. 1600. 1600. 1477. 1477. 1477. 1452. 1452. 1470. 1470. 1470. 1477. 1458. 1458. 1477. 1477. 1464. 1464.
    0. 0. 0. 0. 0. 0. 0. 0. 0. 0. 0. 0. 2057. 2045. 2045. 2033. 2033. 2021. 2021. 2021. 2009. 2009. 2009. 2009. 2009. 2009. 2009. 2009. 2009. 2045. 2033. 2057. 2069. 2069. 2082. 2095. 2082. 2082. 2082. 2082. 2069. 2082. 2082. 2057. 2057. 2057. 2045. 2057. 2057. 2057. 2057. 2057. 2082. 2082. 2082. 2095. 2082. 2069. 2082. 2082. 2095. 2095. 2680. 2107. 2107. 2147. 2147. 2147. 2147. 2107. 2107. 2107. 2743. 2743. 2743. 2743. 2765. 2765. 2765. 2765. 2788. 2810. 2810. 2810. 2810. 2857. 2857. 2857. 2857. 2857. 2881. 2881. 2857. 2905. 2905. 2905. 2930. 2930. 2881. 2881. 2881. 2881. 0. 0. 0. 0. 0. 0. 0. 2384. 2384. 2384. 2384. 2384. 2384. 2384. 2384. 2384. 2367. 2384. 2384. 2384. 2384. 2400. 2367. 2400. 2400. 2400. 1339. 1339. 1319. 1319. 1319. 1319. 1314. 1309. 1309. 1309. 1304. 1299. 1299. 1299. 1294. 1294. 1289. 1284. 1280. 1275. 1275. 1270. 1270. 1270. 1265. 1256. 1261. 1256. 1256. 1256. 1252. 1252. 1252. 1252. 1252. 1247. 1247. 1243. 1243. 1238. 1238. 1234. 1234. 1234. 1234. 1229. 1229. 1229. 1225. 1221. 1221. 1225. 1225. 1225. 1225. 1225. 1225. 1221. 1221. 1221. 1216. 1216. 1216. 1216. 1216. 1216. 1212. 1212. 1212. 1212. 1212. 1212. 1208. 1208. 1208. 1208. 1208. 1208. 1204. 1204. 1204. 1204. 1204. 1204. 1204. 1204. 1204. 1204. 1204. 1204. 1204. 1208. 1208. 1208. 1208. 1208. 1204. 1204. 1204. 1204. 1204. 1204. 1204. 1204. 1204. 1204. 1204. 1208. 1208. 1208. 1208. 1208. 1208. 1208. 1208. 1208. 1208. 1208. 1208. 1204. 1204. 1204. 1208. 1208. 1208. 1208. 1208. 1208. 1208. 1208. 1208. 1208. 1212. 1212. 1212. 1212. 1212. 1216. 1212. 1212. 1212. 1216. 1212. 1216. 1216. 1221. 1221. 1225. 1221. 1221. 1221. 1221. 1221. 1221. 1221. 1225. 1225. 1225. 1225. 1225. 1225. 1225. 1225. 1229. 1234. 1234. 1238. 1238. 1238. 1238. 1238. 1243. 1247. 1247. 1247. 1252. 1252. 1256. 1256. 1261. 1261. 1261. 1261. 1265. 1270. 1270. 1270. 1270. 1270. 1270. 1270. 1270. 1270. 1270. 1275. 1275. 1280. 1284. 1284. 1289. 1294. 1294. 1299. 1299. 1299. 1304. 1304. 1309. 1309. 1314. 1314. 1319. 1324. 1339. 1350. 1350. 1350. 1360. 1360. 1366. 1360. 1366. 1366. 1371. 1371. 1371. 0. 0. 0. 0. 0. 0. 0. 0. 0. 0. 0. 0. 0. 0. 0. 2701. 2701. 2701. 2701. 2701. 2701. 2701. 2701. 2701. 2701. 2680. 2680. 2680. 2680. 2680. 2680. 2680. 2680. 2680. 2680. 2680. 2680. 2659. 2659. 2659. 2659. 2659. 2659. 2639. 2639. 2619. 2619. 2619. 2639. 2619. 2619. 2619. 2619. 2599. 2599. 2599. 2580. 2599. 2580. 2580. 2599. 2580. 2580. 2580. 2580. 2580. 2580. 2580. 2580. 2580. 2580. 2580. 2580. 2580. 2560. 2560. 2560. 2560. 2542. 2542. 2542. 2542. 2542. 2542. 2542. 2542. 2542. 2542. 2542. 2523. 2523. 2523. 2523. 2523. 2523. 2523. 2505. 2487. 2487. 2487. 2487. 2487. 2487. 2487. 2487. 2487. 2487. 2487. 2469. 2469. 2469. 2469. 2469. 2469. 2469. 2469. 2469. 2469. 2469. 2451. 2451. 2434. 2434. 2434. 2434. 2434. 2434. 2434. 2434. 2434. 2434. 2434. 2434. 2434. 2434. 2434. 2434. 2417. 2417. 2417. 1736. 1736. 1736. 1719. 1711. 1711. 1711. 1711. 1711. 1702. 1702. 1702. 1702. 1702. 1702. 1694. 1686. 1677. 1661. 1653. 1645. 1645. 1638. 1638. 1638. 1638. 1638. 1638. 1638. 1638. 1638. 1630. 1630. 1622. 1622. 1622. 1622. 1622. 1622. 1622. 1622. 1630. 1622. 1622. 1600. 1600. 1600. 1592. 1592. 1592. 1592. 1592. 1592. 1592. 1592. 1592. 1592. 1592. 1592. 1592. 1592. 1592. 1592. 1592. 1600. 1600. 1600. 1600. 1600. 1592. 1592. 1592. 1592. 1592. 1585. 1585. 1585. 1585. 1585. 1585. 1578. 1571. 1571. 1571. 1563. 1563. 1563. 1563. 1556. 1549. 1549. 1549. 1549. 1549. 1549. 1556. 1542. 0. 0. 0. 0. 0. 1470. 1470. 1470. 1470. 1483. 1483. 1828. 1809. 1809. 1809. 1653. 1653. 1653. 1645. 1653. 1645. 1638. 1638. 1638. 1645. 1645. 1638. 1638. 1638. 1638. 1638. 1600. 1600. 1600. 1592. 1585. 1585. 1585. 1578. 1578. 1477. 1477. 1489. 1458. 1458. 1477. 1477. 1470. 1464.
    0. 0. 0. 0. 0. 0. 0. 0. 0. 0. 2057. 2045. 2045. 2033. 2033. 2045. 2033. 2033. 2033. 2033. 2009. 2009. 2021. 2009. 2009. 2021. 2009. 2021. 2045. 2045. 2033. 2045. 2057. 2057. 2069. 2069. 2069. 2069. 2069. 2069. 2057. 2057. 2057. 2057. 2057. 2045. 2045. 2057. 2057. 2057. 2057. 2057. 2057. 2057. 2069. 2082. 2069. 2057. 2057. 2082. 2082. 2095. 2095. 2107. 2107. 0. 2133. 2107. 2107. 2107. 2107. 2107. 2107. 2120. 0. 0. 2743. 2743. 2743. 2765. 2788. 2810. 2788. 2788. 2834. 2857. 2857. 2857. 2857. 2857. 2881. 2881. 2881. 2905. 2930. 2930. 2930. 2930. 2905. 2905. 2905. 2905. 0. 0. 0. 0. 0. 0. 0. 0. 2384. 2384. 2367. 2367. 2384. 2367. 2384. 2384. 2367. 2367. 2367. 2384. 2367. 2367. 1360. 1360. 1360. 1339. 1339. 1339. 1319. 1319. 1314. 1314. 1309. 1309. 1304. 1299. 1299. 1299. 1294. 1294. 1289. 1289. 1284. 1280. 1275. 1270. 1270. 1265. 1265. 1265. 1256. 1252. 1256. 1256. 1256. 1252. 1252. 1252. 1247. 1247. 1243. 1243. 1243. 1238. 1238. 1234. 1234. 1229. 1229. 1229. 1229. 1229. 1225. 1221. 1221. 1221. 1221. 1221. 1221. 1221. 1221. 1221. 1221. 1221. 1221. 1221. 1212. 1212. 1212. 1212. 1212. 1212. 1212. 1212. 1212. 1212. 1208. 1208. 1208. 1204. 1204. 1204. 1204. 1204. 1204. 1204. 1204. 1204. 1200. 1200. 1200. 1200. 1200. 1200. 1200. 1204. 1200. 1204. 1204. 1204. 1204. 1204. 1200. 1200. 1200. 1200. 1200. 1204. 1200. 1204. 1195. 1204. 1204. 1204. 1204. 1204. 1204. 1204. 1204. 1208. 1208. 1204. 1204. 1204. 1204. 1204. 1200. 1204. 1204. 1204. 1204. 1208. 1204. 1204. 1208. 1208. 1208. 1208. 1208. 1208. 1212. 1212. 1212. 1212. 1212. 1212. 1212. 1212. 1212. 1212. 1212. 1212. 1221. 1221. 1216. 1216. 1216. 1216. 1221. 1221. 1221. 1221. 1221. 1221. 1225. 1225. 1225. 1225. 1225. 1229. 1234. 1234. 1234. 1238. 1238. 1238. 1238. 1238. 1243. 1243. 1247. 1252. 1252. 1252. 1256. 1256. 1256. 1261. 1261. 1261. 1265. 1265. 1265. 1265. 1265. 1265. 1270. 1270. 1270. 1270. 1275. 1275. 1275. 1280. 1284. 1284. 1289. 1289. 1294. 1294. 1299. 1299. 1304. 1304. 1304. 1309. 1309. 1314. 1319. 1329. 1339. 1344. 1344. 1350. 1350. 1350. 1355. 1360. 1366. 1371. 1371. 1371. 0. 0. 0. 0. 0. 0. 0. 0. 0. 0. 0. 0. 0. 0. 0. 0. 2680. 2701. 2701. 2701. 2701. 2701. 2701. 2680. 2701. 2680. 2680. 2680. 2680. 2680. 2680. 2680. 2680. 2680. 2680. 2680. 2680. 2680. 2659. 2659. 2659. 2659. 2639. 2639. 2639. 2639. 2619. 2639. 2639. 2619. 2619. 2619. 2619. 2599. 2599. 2599. 2580. 2599. 2580. 2599. 2580. 2580. 2580. 2580. 2599. 2580. 2580. 2580. 2580. 2580. 2580. 2580. 2580. 2580. 2560. 2560. 2560. 2560. 2560. 2542. 2542. 2542. 2542. 2542. 2542. 2542. 2542. 2523. 2523. 2523. 2523. 2523. 2523. 2523. 2523. 2523. 2505. 2487. 2487. 2487. 2487. 2487. 2487. 2487. 2487. 2487. 2487. 2487. 2487. 2469. 2469. 2469. 2469. 2469. 2469. 2469. 2469. 2469. 2469. 2451. 2451. 2434. 2434. 2434. 2434. 2434. 2434. 2434. 2434. 2434. 2434. 2434. 2434. 2434. 2434. 2434. 2434. 2434. 2434. 2417. 2417. 1745. 1745. 1736. 1719. 1719. 1719. 1719. 1711. 1711. 1711. 1711. 1711. 1711. 1711. 1702. 1694. 1686. 1669. 1661. 1645. 1645. 1645. 1645. 1645. 1638. 1638. 1638. 1638. 1638. 1638. 1630. 1622. 1622. 1622. 1622. 1622. 1622. 1622. 1622. 1622. 1630. 1622. 1622. 1607. 1600. 1600. 1592. 1592. 1592. 1592. 1592. 1592. 1592. 1592. 1592. 1592. 1600. 1600. 1600. 1600. 1600. 1600. 1600. 1615. 1607. 1607. 1607. 1607. 1600. 1607. 1600. 1600. 1600. 1592. 1592. 1592. 1592. 1592. 1592. 1585. 1578. 1571. 1571. 1571. 1563. 1563. 1563. 1556. 1556. 1556. 1556. 1556. 1556. 1556. 1563. 1563. 0. 0. 0. 0. 0. 1477. 1477. 1477. 1477. 1483. 1489. 1800. 1800. 1800. 0. 0. 1645. 1645. 1645. 1645. 1645. 1630. 1630. 1630. 1645. 1638. 1638. 1630. 1638. 1638. 1622. 1607. 1600. 1600. 1592. 1585. 1585. 1585. 1578. 1578. 1578. 1578. 1458. 1458. 1452. 1464. 1464. 1470. 1470.
    0. 0. 0. 0. 0. 0. 0. 0. 2045. 2045. 2045. 2045. 2045. 2033. 2033. 2033. 2033. 2033. 2033. 2045. 2009. 2009. 2009. 2009. 2009. 2021. 2009. 2021. 2021. 2021. 2033. 2045. 2045. 2057. 2057. 2057. 2057. 2057. 2057. 2057. 2045. 2045. 2057. 2045. 2045. 2045. 2045. 2057. 2057. 2057. 2057. 2057. 2069. 2057. 2069. 2069. 2082. 2069. 2069. 2069. 2082. 2095. 2095. 2095. 2120. 2120. 2133. 2120. 2095. 2095. 2095. 2107. 2107. 2120. 0. 0. 0. 0. 2259. 2788. 2788. 2810. 2810. 2834. 2857. 2857. 2857. 2244. 2244. 2244. 2244. 2259. 2259. 2930. 2930. 2930. 2930. 2905. 2930. 2930. 2930. 0. 0. 0. 0. 0. 0. 0. 0. 0. 2384. 2384. 2367. 2367. 2367. 2367. 2367. 2367. 2367. 2367. 2367. 2384. 2384. 1350. 1350. 1355. 1350. 1339. 1339. 1339. 1334. 1314. 1314. 1304. 1304. 1304. 1299. 1299. 1299. 1294. 1294. 1289. 1284. 1280. 1275. 1275. 1270. 1270. 1270. 1265. 1261. 1265. 1261. 1256. 1256. 1252. 1247. 1247. 1243. 1247. 1238. 1243. 1238. 1238. 1238. 1234. 1234. 1229. 1229. 1225. 1225. 1221. 1221. 1221. 1216. 1221. 1216. 1216. 1221. 1221. 1221. 1221. 1221. 1216. 1216. 1216. 1216. 1216. 1212. 1208. 1212. 1208. 1208. 1208. 1208. 1208. 1208. 1208. 1204. 1208. 1204. 1204. 1200. 1200. 1200. 1200. 1200. 1200. 1200. 1200. 1200. 1200. 1200. 1200. 1200. 1200. 1200. 1200. 1200. 1200. 1200. 1200. 1200. 1200. 1200. 1200. 1200. 1200. 1200. 1200. 1200. 1200. 1195. 1200. 1200. 1200. 1200. 1200. 1200. 1200. 1204. 1204. 1204. 1200. 1200. 1200. 1204. 1200. 1200. 1204. 1204. 1200. 1204. 1204. 1200. 1200. 1208. 1204. 1204. 1208. 1208. 1208. 1208. 1208. 1208. 1208. 1208. 1208. 1208. 1208. 1208. 1208. 1208. 1212. 1212. 1216. 1216. 1216. 1216. 1216. 1216. 1216. 1221. 1221. 1221. 1221. 1221. 1221. 1225. 1221. 1225. 1225. 1225. 1234. 1234. 1234. 1234. 1234. 1238. 1238. 1243. 1243. 1243. 1247. 1247. 1252. 1252. 1256. 1252. 1256. 1256. 1261. 1261. 1261. 1261. 1261. 1265. 1261. 1265. 1261. 1261. 1265. 1270. 1270. 1275. 1275. 1280. 1280. 1284. 1289. 1289. 1289. 1294. 1294. 1299. 1304. 1304. 1309. 1309. 1314. 1314. 1319. 1324. 1329. 1334. 1339. 1339. 1350. 1350. 1350. 1360. 1366. 1371. 1371. 1376. 0. 0. 0. 0. 0. 0. 0. 0. 0. 0. 0. 0. 0. 0. 0. 0. 0. 2701. 2701. 2701. 2701. 2701. 2680. 2701. 2701. 2680. 2680. 2680. 2680. 2680. 2680. 2680. 2680. 2680. 2680. 2680. 2680. 2659. 2659. 2659. 2659. 2659. 2659. 2659. 2659. 2659. 2639. 2659. 2619. 2619. 2619. 2619. 2599. 2580. 2580. 2580. 2599. 2580. 2580. 2580. 2580. 2580. 2580. 2580. 2580. 2580. 2580. 2580. 2580. 2580. 2580. 2580. 2580. 2560. 2560. 2560. 2560. 2560. 2542. 2542. 2542. 2542. 2542. 2523. 2542. 2542. 2523. 2523. 2523. 2523. 2523. 2523. 2523. 2523. 2523. 2523. 2505. 2505. 2487. 2487. 2487. 2487. 2487. 2487. 2487. 2487. 2487. 2487. 2469. 2469. 2469. 2469. 2469. 2469. 2469. 2469. 2469. 2451. 2451. 2434. 2434. 2434. 2434. 2434. 2434. 2434. 2434. 2434. 2434. 2434. 2434. 2434. 2434. 2434. 2434. 2434. 2434. 2434. 2417. 2434. 2400. 2400. 2400. 1728. 1719. 1719. 1711. 1719. 1711. 1711. 1711. 1719. 1711. 1711. 1711. 1702. 1686. 1677. 1669. 1653. 1645. 1645. 1653. 1645. 1645. 1638. 1638. 1638. 1638. 1638. 1630. 1630. 1622. 1630. 1630. 1630. 1622. 1630. 1630. 1630. 1630. 1622. 1622. 1607. 1600. 1600. 1600. 1600. 1592. 1592. 1592. 1592. 1592. 1600. 1600. 1600. 1600. 1600. 1600. 1607. 1607. 1607. 1607. 1615. 1615. 1615. 1615. 1615. 1607. 1615. 1607. 1607. 1607. 1592. 1600. 1592. 1592. 1592. 1592. 1585. 1578. 1578. 1571. 1571. 1571. 1571. 1571. 1556. 1556. 1556. 1563. 1563. 1563. 1563. 1563. 1571. 1571. 0. 0. 0. 0. 1477. 1477. 1477. 1483. 1489. 1489. 1781. 1781. 1781. 0. 0. 1645. 1645. 1645. 1653. 1653. 1630. 1622. 1630. 1645. 1638. 1638. 1630. 1638. 1630. 1615. 1607. 1600. 1600. 1600. 1585. 1585. 1585. 1585. 1578. 1578. 1578. 1578. 1489. 1489. 1464. 1470. 1470. 1470.
    0. 0. 0. 0. 0. 0. 0. 0. 2057. 2033. 2033. 2021. 2045. 2033. 2009. 2033. 2033. 2009. 2021. 2021. 2021. 2021. 2009. 2021. 2021. 2021. 2021. 2021. 2045. 2033. 2033. 2045. 2045. 2045. 2057. 2057. 2045. 2057. 2057. 2057. 2045. 2033. 2045. 2045. 2045. 2033. 2045. 2045. 2057. 2057. 2057. 2057. 2057. 2057. 2057. 2069. 2069. 2069. 2069. 2069. 2082. 2095. 2107. 2107. 2120. 2120. 2133. 2120. 2107. 2095. 2095. 2107. 2120. 2120. 2120. 0. 2244. 2244. 2259. 2259. 2259. 2259. 2274. 2259. 2274. 2259. 2259. 2259. 2259. 2259. 2259. 2259. 2274. 2289. 2289. 2289. 2304. 2304. 2304. 0. 0. 0. 0. 0. 0. 0. 0. 0. 0. 0. 2400. 2384. 2384. 2367. 2367. 2367. 2367. 2367. 2367. 2351. 2351. 2384. 2384. 1344. 1344. 1350. 1334. 1334. 1319. 1314. 1314. 1309. 1299. 1299. 1299. 1299. 1294. 1294. 1294. 1289. 1284. 1280. 1280. 1275. 1270. 1270. 1265. 1265. 1265. 1261. 1261. 1261. 1256. 1247. 1243. 1243. 1243. 1243. 1243. 1238. 1238. 1238. 1238. 1234. 1234. 1229. 1229. 1229. 1225. 1221. 1221. 1221. 1221. 1216. 1216. 1216. 1216. 1216. 1216. 1221. 1221. 1221. 1216. 1216. 1216. 1216. 1216. 1212. 1208. 1204. 1208. 1204. 1204. 1204. 1204. 1204. 1204. 1204. 1204. 1204. 1200. 1200. 1200. 1200. 1200. 1200. 1200. 1200. 1200. 1200. 1200. 1195. 1200. 1195. 1200. 1195. 1200. 1200. 1200. 1200. 1200. 1200. 1200. 1200. 1200. 1200. 1200. 1200. 1200. 1200. 1200. 1200. 1195. 1195. 1195. 1195. 1195. 1195. 1195. 1195. 1200. 1200. 1200. 1200. 1195. 1200. 1200. 1200. 1200. 1200. 1195. 1195. 1200. 1200. 1200. 1200. 1200. 1200. 1204. 1204. 1204. 1204. 1208. 1208. 1204. 1208. 1208. 1208. 1208. 1208. 1208. 1208. 1208. 1208. 1212. 1212. 1212. 1212. 1212. 1212. 1216. 1216. 1216. 1221. 1221. 1221. 1221. 1221. 1221. 1221. 1221. 1225. 1225. 1229. 1229. 1234. 1234. 1234. 1234. 1234. 1238. 1238. 1238. 1243. 1243. 1243. 1252. 1252. 1247. 1256. 1256. 1256. 1256. 1256. 1256. 1256. 1261. 1261. 1261. 1256. 1256. 1261. 1261. 1261. 1265. 1275. 1275. 1280. 1284. 1284. 1289. 1289. 1289. 1294. 1294. 1299. 1299. 1304. 1309. 1309. 1314. 1314. 1319. 1329. 1329. 1334. 1339. 1344. 1339. 1350. 1355. 1366. 1366. 1371. 0. 0. 0. 0. 0. 0. 0. 0. 0. 0. 0. 0. 0. 0. 0. 0. 0. 0. 0. 2680. 2680. 2701. 2680. 2680. 2680. 2680. 2680. 2680. 2680. 2680. 2680. 2680. 2680. 2680. 2680. 2680. 2680. 2680. 2659. 2659. 2659. 2659. 2659. 2639. 2639. 2639. 2639. 2639. 2639. 2619. 2619. 2619. 2619. 2599. 2599. 2599. 2580. 2599. 2580. 2580. 2580. 2580. 2580. 2580. 2580. 2580. 2580. 2580. 2580. 2580. 2580. 2580. 2580. 2580. 2560. 2560. 2560. 2560. 2560. 2542. 2542. 2542. 2542. 2542. 2523. 2523. 2523. 2523. 2523. 2523. 2523. 2523. 2523. 2523. 2523. 2523. 2523. 2505. 2505. 2487. 2487. 2487. 2487. 2487. 2487. 2487. 2487. 2487. 2487. 2469. 2469. 2469. 2469. 2469. 2469. 2469. 2469. 2469. 2451. 2451. 2451. 2434. 2434. 2434. 2434. 2434. 2434. 2434. 2434. 2434. 2434. 2434. 2434. 2434. 2434. 2434. 2434. 2434. 2434. 2434. 2434. 2417. 2400. 2400. 2400. 2400. 2400. 1719. 1719. 1719. 1719. 1719. 1719. 1719. 1719. 1719. 1711. 1694. 1677. 1669. 1661. 1653. 1653. 1653. 1653. 1645. 1645. 1638. 1638. 1638. 1638. 1630. 1630. 1630. 1630. 1630. 1630. 1630. 1630. 1630. 1630. 1630. 1630. 1622. 1615. 1600. 1600. 1600. 1600. 1600. 1600. 1592. 1592. 1600. 1600. 1600. 1600. 1600. 1600. 1607. 1607. 1615. 1615. 1615. 1622. 1622. 1622. 1615. 1615. 1615. 1615. 1615. 1607. 1607. 1607. 1600. 1600. 1600. 1600. 1600. 1592. 1585. 1585. 1578. 1585. 1578. 1578. 1578. 1563. 1571. 1563. 1563. 1563. 1571. 1571. 1571. 1563. 0. 0. 0. 0. 0. 1477. 1477. 1477. 1489. 1489. 1483. 1483. 1772. 1772. 1719. 1719. 1719. 0. 1653. 1653. 1630. 1630. 1622. 1622. 1638. 1630. 1630. 1630. 1630. 1622. 1615. 1600. 1600. 1600. 1592. 1585. 1592. 1585. 1585. 1578. 1578. 1578. 1571. 1571. 1496. 1489. 1483. 1489. 1470.
    0. 0. 0. 0. 0. 0. 0. 0. 2045. 2033. 2033. 2021. 2033. 2021. 2009. 2009. 2033. 2009. 2009. 2021. 2021. 2021. 2021. 2021. 2021. 2021. 2021. 2045. 2045. 2033. 2033. 2045. 2045. 2045. 2045. 2057. 2045. 2057. 2045. 2045. 2021. 2021. 2021. 2021. 2033. 2033. 2033. 2045. 2045. 2045. 2057. 2057. 2057. 2057. 2057. 2069. 2069. 2069. 2069. 2082. 2095. 2107. 2120. 2120. 2133. 2133. 2133. 2120. 2107. 2095. 2095. 2107. 2107. 2120. 2120. 0. 2244. 2244. 2259. 2259. 2259. 2259. 2259. 2259. 2274. 2259. 2259. 2259. 2259. 2259. 2259. 2274. 2274. 2289. 2289. 2289. 2304. 2304. 2304. 0. 0. 0. 0. 0. 0. 0. 0. 0. 0. 0. 2384. 2384. 2384. 2367. 2367. 2367. 2367. 2367. 2384. 2384. 2384. 2384. 1339. 1339. 1339. 1339. 1314. 1319. 1314. 1314. 1309. 1309. 1299. 1299. 1299. 1294. 1294. 1289. 1284. 1280. 1280. 1275. 1275. 1275. 1265. 1265. 1265. 1261. 1261. 1261. 1256. 1256. 1252. 1243. 1238. 1238. 1238. 1238. 1238. 1238. 1238. 1238. 1234. 1234. 1229. 1229. 1229. 1225. 1225. 1221. 1221. 1216. 1216. 1212. 1212. 1216. 1212. 1212. 1216. 1216. 1216. 1216. 1216. 1212. 1212. 1212. 1212. 1208. 1204. 1204. 1200. 1204. 1204. 1204. 1204. 1204. 1200. 1200. 1200. 1200. 1200. 1200. 1200. 1200. 1200. 1200. 1200. 1200. 1200. 1195. 1195. 1195. 1195. 1195. 1195. 1195. 1195. 1195. 1195. 1195. 1195. 1195. 1195. 1195. 1195. 1195. 1195. 1200. 1195. 1195. 1195. 1195. 1191. 1195. 1195. 1195. 1195. 1195. 1195. 1195. 1195. 1195. 1195. 1195. 1195. 1195. 1195. 1195. 1195. 1200. 1195. 1195. 1195. 1195. 1195. 1195. 1195. 1195. 1200. 1200. 1195. 1195. 1204. 1204. 1200. 1204. 1208. 1204. 1208. 1208. 1204. 1208. 1204. 1208. 1208. 1212. 1208. 1208. 1208. 1208. 1212. 1212. 1212. 1216. 1216. 1216. 1216. 1216. 1221. 1221. 1221. 1225. 1225. 1225. 1229. 1225. 1225. 1225. 1225. 1229. 1229. 1229. 1229. 1234. 1238. 1243. 1243. 1247. 1247. 1252. 1252. 1252. 1252. 1252. 1256. 1256. 1256. 1256. 1261. 1256. 1256. 1256. 1261. 1261. 1265. 1270. 1275. 1275. 1280. 1284. 1284. 1284. 1289. 1289. 1289. 1294. 1294. 1299. 1304. 1304. 1309. 1314. 1314. 1319. 1324. 1329. 1334. 1334. 1334. 1339. 1334. 1355. 1355. 1366. 0. 0. 0. 0. 0. 0. 0. 0. 0. 0. 0. 0. 0. 0. 0. 0. 0. 0. 0. 0. 2680. 2701. 2680. 2680. 2680. 2680. 2680. 2680. 2680. 2680. 2680. 2680. 2680. 2680. 2680. 2680. 2680. 2659. 2659. 2659. 2659. 2639. 2659. 2639. 2639. 2639. 2639. 2639. 2639. 2619. 2619. 2619. 2619. 2599. 2599. 2599. 2580. 2599. 2580. 2599. 2599. 2580. 2580. 2580. 2580. 2580. 2580. 2580. 2580. 2580. 2580. 2580. 2580. 2560. 2560. 2560. 2542. 2542. 2542. 2542. 2542. 2542. 2542. 2542. 2523. 2523. 2523. 2523. 2523. 2523. 2523. 2523. 2523. 2523. 2523. 2523. 2523. 2505. 2505. 2505. 2505. 2487. 2487. 2487. 2487. 2487. 2487. 2487. 2487. 2469. 2469. 2469. 2469. 2469. 2469. 2451. 2451. 2451. 2451. 2434. 2434. 2434. 2434. 2434. 2434. 2434. 2434. 2434. 2434. 2434. 2434. 2434. 2434. 2434. 2434. 2434. 2434. 2434. 2434. 2417. 2434. 2400. 2400. 2400. 2400. 2400. 2400. 2400. 2384. 1719. 1719. 1728. 1728. 1719. 1728. 1728. 1719. 1702. 1686. 1686. 1669. 1669. 1669. 1661. 1661. 1653. 1645. 1645. 1638. 1638. 1638. 1630. 1630. 1630. 1630. 1630. 1630. 1630. 1630. 1630. 1630. 1630. 1630. 1630. 1615. 1600. 1600. 1600. 1600. 1600. 1600. 1600. 1592. 1600. 1600. 1600. 1600. 1600. 1600. 1607. 1615. 1622. 1622. 1622. 1622. 1622. 1622. 1622. 1622. 1622. 1622. 1615. 1615. 1615. 1615. 1615. 1607. 1607. 1600. 1600. 1600. 1592. 1592. 1592. 1592. 1585. 1592. 1592. 1585. 1585. 1585. 1578. 1578. 1578. 1578. 1571. 1571. 0. 0. 0. 0. 0. 1483. 1483. 1483. 1489. 1483. 1483. 1483. 1754. 1754. 1719. 1719. 1719. 1661. 1653. 1653. 1669. 1653. 1622. 1622. 1638. 1622. 1622. 1622. 1630. 1622. 1615. 1607. 1600. 1592. 1592. 1585. 1585. 1585. 1585. 1585. 1585. 1578. 1578. 1571. 1496. 1496. 1489. 1496. 1477.
    0. 0. 0. 0. 0. 0. 0. 0. 2033. 2033. 2021. 2021. 2021. 2009. 2009. 2009. 2009. 2009. 2021. 2021. 2021. 2021. 2045. 2045. 2021. 2045. 2045. 2045. 2045. 2033. 2045. 2057. 2057. 2057. 2057. 2057. 2057. 2045. 2045. 2009. 2021. 2009. 2021. 2021. 2021. 2021. 2033. 2045. 2045. 2045. 2045. 2045. 2057. 2057. 2057. 2069. 2069. 2069. 2069. 2082. 2095. 2107. 2120. 2120. 2133. 2133. 2147. 2133. 2095. 2095. 2095. 2107. 2107. 2107. 2107. 0. 0. 2244. 2259. 2259. 2259. 2259. 2259. 2259. 2274. 2259. 2259. 2259. 2259. 2259. 2259. 2259. 2274. 2274. 2289. 2289. 2289. 2304. 2304. 2304. 0. 0. 0. 0. 0. 0. 0. 0. 0. 0. 2367. 2367. 2367. 2367. 2367. 2367. 2400. 2400. 2384. 2384. 2384. 2384. 1334. 1334. 1334. 1334. 1314. 1314. 1309. 1309. 1304. 1299. 1294. 1294. 1294. 1289. 1289. 1284. 1280. 1280. 1275. 1270. 1270. 1270. 1261. 1261. 1261. 1256. 1256. 1256. 1252. 1243. 1243. 1238. 1238. 1238. 1238. 1238. 1238. 1234. 1234. 1234. 1234. 1229. 1229. 1225. 1225. 1221. 1221. 1216. 1216. 1212. 1212. 1208. 1212. 1212. 1212. 1212. 1212. 1216. 1216. 1216. 1216. 1208. 1208. 1208. 1208. 1208. 1200. 1200. 1200. 1200. 1200. 1200. 1200. 1200. 1200. 1200. 1200. 1200. 1200. 1195. 1195. 1195. 1195. 1195. 1195. 1195. 1195. 1195. 1195. 1195. 1195. 1195. 1195. 1195. 1195. 1195. 1195. 1195. 1195. 1195. 1195. 1195. 1195. 1195. 1195. 1195. 1195. 1195. 1195. 1191. 1187. 1191. 1191. 1191. 1191. 1191. 1191. 1191. 1195. 1191. 1195. 1195. 1191. 1191. 1195. 1195. 1195. 1195. 1191. 1195. 1195. 1195. 1195. 1200. 1200. 1200. 1200. 1204. 1195. 1195. 1195. 1195. 1195. 1195. 1200. 1200. 1200. 1204. 1200. 1200. 1200. 1204. 1208. 1208. 1204. 1204. 1204. 1204. 1208. 1208. 1208. 1212. 1212. 1212. 1216. 1216. 1216. 1216. 1221. 1221. 1221. 1225. 1225. 1221. 1221. 1225. 1225. 1225. 1225. 1229. 1229. 1234. 1238. 1238. 1243. 1243. 1243. 1247. 1252. 1252. 1252. 1252. 1252. 1252. 1256. 1256. 1256. 1252. 1256. 1256. 1261. 1256. 1265. 1270. 1270. 1275. 1280. 1280. 1284. 1284. 1284. 1284. 1284. 1289. 1289. 1294. 1299. 1299. 1304. 1309. 1314. 1314. 1319. 1324. 1329. 1329. 1334. 1334. 1334. 1339. 1344. 1360. 1366. 0. 0. 0. 0. 0. 0. 0. 0. 0. 0. 0. 0. 0. 0. 0. 0. 0. 0. 0. 0. 2680. 2680. 2680. 2680. 2680. 2680. 2680. 2680. 2680. 2680. 2680. 2680. 2680. 2680. 2680. 2659. 2659. 2659. 2659. 2659. 2639. 2639. 2639. 2639. 2639. 2639. 2639. 2639. 2619. 2619. 2619. 2619. 2599. 2599. 2599. 2580. 2599. 2580. 2580. 2580. 2580. 2580. 2580. 2580. 2580. 2580. 2580. 2580. 2580. 2580. 2580. 2580. 2580. 2560. 2560. 2560. 2542. 2542. 2542. 2542. 2542. 2542. 2542. 2523. 2523. 2523. 2523. 2523. 2523. 2523. 2523. 2523. 2523. 2523. 2523. 2523. 2505. 2505. 2505. 2487. 2487. 2487. 2487. 2487. 2487. 2487. 2487. 2487. 2469. 2469. 2469. 2451. 2451. 2469. 2451. 2451. 2451. 2434. 2434. 2434. 2434. 2434. 2434. 2434. 2434. 2434. 2434. 2434. 2434. 2434. 2434. 2434. 2434. 2434. 2434. 2434. 2434. 2434. 2434. 2434. 2400. 2400. 2400. 2400. 2400. 2400. 2400. 2384. 2384. 2417. 2417. 1728. 1728. 1728. 1728. 1728. 1694. 1694. 1686. 1686. 1669. 1677. 1669. 1669. 1661. 1653. 1653. 1645. 1645. 1638. 1638. 1630. 1630. 1630. 1630. 1630. 1630. 1630. 1630. 1630. 1630. 1630. 1622. 1615. 1600. 1615. 1600. 1600. 1600. 1600. 1600. 1600. 1607. 1607. 1607. 1600. 1607. 1615. 1622. 1622. 1630. 1630. 1622. 1630. 1630. 1630. 1630. 1622. 1622. 1622. 1622. 1622. 1622. 1622. 1622. 1622. 1615. 1615. 1607. 1607. 1600. 1600. 1600. 1600. 1592. 1592. 1600. 1585. 1592. 1585. 1585. 1578. 1578. 1578. 1571. 1578. 1578. 0. 0. 0. 0. 0. 1711. 1711. 1711. 1483. 1719. 1745. 1745. 1745. 1728. 1728. 1661. 1661. 1653. 1653. 1711. 1622. 1711. 1622. 1677. 1615. 1615. 1622. 1622. 1615. 1607. 1607. 1592. 1592. 1592. 1585. 1585. 1585. 1585. 1578. 1585. 1585. 1571. 1563. 1542. 1502. 1502. 1502. 1502.
    0. 0. 0. 0. 0. 0. 0. 0. 2033. 2021. 2021. 2021. 2021. 2009. 2009. 2009. 2021. 2009. 2021. 2021. 2033. 2033. 2045. 2045. 2045. 2045. 2057. 2057. 2057. 2057. 2057. 2057. 2057. 2057. 2057. 2057. 2045. 2045. 2045. 2033. 2021. 2021. 2021. 2021. 2021. 2021. 2033. 2033. 2033. 2045. 2045. 2045. 2057. 2057. 2057. 2069. 2069. 2082. 2082. 2095. 2095. 2107. 2120. 2107. 2120. 2133. 2120. 2133. 2120. 2107. 2095. 2107. 2107. 0. 0. 2107. 2244. 2244. 2244. 2259. 2259. 2259. 2274. 2259. 2259. 2259. 2259. 2259. 2259. 2259. 2259. 2259. 2274. 2274. 2289. 2289. 2289. 2289. 2304. 2304. 2289. 0. 0. 0. 0. 0. 0. 0. 0. 0. 0. 2367. 2367. 0. 0. 2367. 2367. 2367. 2384. 2384. 2384. 2400. 1329. 1329. 1334. 1314. 1309. 1309. 1304. 1304. 1299. 1294. 1294. 1289. 1284. 1284. 1280. 1275. 1275. 1275. 1265. 1261. 1261. 1261. 1256. 1261. 1256. 1256. 1252. 1252. 1243. 1243. 1238. 1238. 1234. 1234. 1234. 1234. 1229. 1229. 1229. 1229. 1229. 1229. 1225. 1225. 1225. 1221. 1221. 1216. 1216. 1212. 1208. 1208. 1208. 1208. 1208. 1208. 1212. 1212. 1212. 1212. 1212. 1204. 1208. 1204. 1204. 1204. 1200. 1200. 1200. 1200. 1200. 1200. 1200. 1200. 1200. 1195. 1195. 1195. 1195. 1195. 1195. 1195. 1195. 1195. 1195. 1195. 1195. 1195. 1195. 1195. 1195. 1195. 1195. 1191. 1195. 1195. 1195. 1191. 1191. 1191. 1191. 1191. 1191. 1191. 1191. 1191. 1191. 1191. 1191. 1191. 1187. 1187. 1191. 1187. 1187. 1187. 1187. 1187. 1191. 1187. 1191. 1191. 1187. 1187. 1191. 1191. 1191. 1191. 1191. 1191. 1195. 1195. 1195. 1195. 1195. 1195. 1200. 1195. 1191. 1195. 1195. 1195. 1195. 1195. 1195. 1200. 1200. 1200. 1195. 1200. 1200. 1200. 1200. 1200. 1200. 1204. 1204. 1204. 1204. 1204. 1208. 1208. 1208. 1208. 1212. 1212. 1212. 1216. 1216. 1221. 1221. 1221. 1221. 1225. 1225. 1221. 1225. 1225. 1225. 1225. 1229. 1229. 1234. 1238. 1238. 1238. 1238. 1243. 1243. 1247. 1247. 1247. 1247. 1247. 1252. 1252. 1256. 1252. 1252. 1252. 1256. 1256. 1256. 1256. 1261. 1270. 1275. 1275. 1275. 1284. 1284. 1280. 1284. 1289. 1289. 1294. 1294. 1299. 1299. 1309. 1309. 1314. 1314. 1319. 1324. 1329. 1329. 1334. 1334. 1339. 1339. 1344. 1360. 0. 0. 0. 0. 0. 0. 0. 0. 0. 0. 0. 0. 0. 0. 0. 0. 0. 0. 0. 0. 0. 2680. 2680. 2680. 2680. 2680. 2680. 2680. 2659. 2680. 2680. 2659. 2659. 2659. 2680. 2659. 2659. 2659. 2659. 2639. 2639. 2639. 2639. 2639. 2639. 2639. 2639. 2639. 2619. 2619. 2619. 2619. 2599. 2599. 2599. 2580. 2599. 2580. 2580. 2580. 2580. 2580. 2580. 2580. 2580. 2580. 2580. 2580. 2580. 2580. 2580. 2580. 2580. 2560. 2542. 2560. 2542. 2542. 2542. 2542. 2542. 2542. 2542. 2523. 2523. 2523. 2523. 2523. 2523. 2523. 2523. 2523. 2523. 2523. 2523. 2523. 2505. 2505. 2505. 2505. 2487. 2487. 2487. 2487. 2487. 2487. 2487. 2469. 2469. 2469. 2469. 2451. 2451. 2451. 2451. 2451. 2451. 2434. 2434. 2434. 2434. 2434. 2434. 2434. 2434. 2434. 2434. 2434. 2434. 2434. 2434. 2434. 2434. 2434. 2434. 2434. 2434. 2434. 2434. 2434. 2417. 2400. 2400. 2400. 2400. 2400. 2400. 2384. 2384. 2384. 2384. 2384. 2400. 2400. 2367. 2367. 1694. 1694. 1694. 1686. 1677. 1686. 1677. 1669. 1669. 1661. 1653. 1653. 1653. 1638. 1638. 1638. 1630. 1630. 1630. 1630. 1630. 1630. 1630. 1630. 1630. 1630. 1622. 1615. 1600. 1615. 1600. 1615. 1607. 1607. 1607. 1607. 1615. 1615. 1615. 1615. 1615. 1622. 1622. 1630. 1630. 1630. 1630. 1638. 1638. 1630. 1630. 1630. 1630. 1630. 1630. 1622. 1630. 1622. 1630. 1622. 1622. 1622. 1615. 1622. 1615. 1615. 1615. 1607. 1622. 1622. 1615. 1607. 1600. 1592. 1592. 1592. 1585. 1585. 1585. 1585. 1585. 1585. 0. 1592. 1458. 1458. 1458. 1702. 1702. 1702. 1702. 1711. 1719. 1711. 1694. 1719. 1669. 1669. 1677. 1677. 1711. 1702. 1711. 1702. 1694. 1615. 1615. 1622. 1615. 1607. 1607. 1600. 1592. 1592. 1592. 1585. 1585. 1585. 1600. 1592. 1592. 1592. 1585. 1556. 1549. 1542. 1509. 1509. 1509.
    0. 0. 0. 0. 0. 0. 0. 0. 2033. 2021. 2021. 2021. 2009. 2009. 2009. 2009. 2009. 2021. 2021. 2021. 2033. 2033. 2033. 2045. 2045. 2045. 2057. 2057. 2057. 2057. 2057. 2057. 2069. 2069. 2057. 2057. 2045. 2045. 2033. 2021. 2021. 2009. 2021. 2021. 2021. 2021. 2033. 2033. 2033. 2033. 2033. 2045. 2057. 2057. 2057. 2069. 2069. 2082. 2082. 2095. 2095. 2107. 2120. 2107. 2133. 2133. 2120. 2120. 2120. 2095. 2095. 2107. 2107. 2107. 2107. 2107. 2133. 2244. 2244. 2244. 2259. 2259. 2259. 2259. 2259. 2259. 2259. 2259. 2259. 2259. 2259. 2259. 2274. 2274. 2274. 2289. 2289. 2289. 2289. 2304. 2289. 0. 0. 0. 0. 0. 0. 0. 0. 0. 2351. 2351. 2367. 0. 0. 0. 0. 0. 1329. 1324. 1324. 1324. 1329. 1324. 1329. 1319. 1309. 1304. 1299. 1294. 1294. 1289. 1284. 1284. 1280. 1280. 1275. 1275. 1270. 1265. 1261. 1261. 1261. 1256. 1252. 1256. 1256. 1252. 1252. 1247. 1238. 1238. 1238. 1234. 1234. 1234. 1234. 1229. 1229. 1225. 1229. 1229. 1229. 1225. 1225. 1225. 1225. 1221. 1221. 1216. 1216. 1212. 1208. 1204. 1204. 1208. 1204. 1208. 1208. 1208. 1208. 1208. 1208. 1204. 1204. 1204. 1204. 1204. 1200. 1200. 1195. 1195. 1195. 1195. 1195. 1195. 1195. 1195. 1195. 1195. 1191. 1195. 1191. 1195. 1191. 1195. 1195. 1195. 1195. 1195. 1195. 1195. 1195. 1191. 1191. 1191. 1191. 1191. 1191. 1187. 1187. 1187. 1187. 1187. 1187. 1187. 1187. 1191. 1183. 1183. 1187. 1187. 1183. 1183. 1183. 1183. 1183. 1187. 1187. 1187. 1187. 1187. 1187. 1187. 1191. 1187. 1187. 1191. 1191. 1191. 1187. 1191. 1191. 1191. 1195. 1195. 1195. 1195. 1195. 1191. 1191. 1191. 1191. 1191. 1191. 1195. 1195. 1195. 1200. 1200. 1195. 1200. 1200. 1200. 1200. 1200. 1195. 1200. 1200. 1204. 1204. 1204. 1204. 1204. 1208. 1208. 1208. 1208. 1212. 1212. 1216. 1216. 1216. 1216. 1221. 1221. 1221. 1221. 1221. 1221. 1225. 1225. 1225. 1225. 1229. 1229. 1234. 1238. 1238. 1243. 1243. 1243. 1243. 1247. 1247. 1247. 1252. 1252. 1252. 1247. 1252. 1252. 1256. 1256. 1256. 1256. 1256. 1256. 1265. 1270. 1275. 1275. 1280. 1280. 1280. 1284. 1289. 1289. 1294. 1294. 1299. 1304. 1309. 1309. 1314. 1314. 1319. 1324. 1324. 1329. 1334. 1334. 1339. 1339. 1355. 1355. 0. 0. 0. 0. 0. 0. 0. 0. 0. 0. 0. 0. 0. 0. 0. 0. 0. 0. 0. 0. 0. 2659. 2639. 2680. 2680. 2680. 2680. 2659. 2659. 2659. 2659. 2659. 2659. 2680. 2659. 2680. 2659. 2659. 2659. 2639. 2639. 2619. 2619. 2639. 2639. 2639. 2639. 2619. 2619. 2619. 2619. 2599. 2580. 2599. 2580. 2599. 2580. 2580. 2580. 2580. 2580. 2580. 2580. 2580. 2580. 2580. 2580. 2580. 2580. 2580. 2580. 2580. 2560. 2560. 2560. 2542. 2542. 2542. 2542. 2542. 2542. 2542. 2523. 2523. 2523. 2523. 2523. 2523. 2523. 2523. 2523. 2523. 2523. 2523. 2523. 2505. 2505. 2505. 2505. 2487. 2487. 2487. 2487. 2487. 2487. 2487. 2469. 2469. 2469. 2451. 2451. 2451. 2451. 2451. 2451. 2451. 2451. 2434. 2434. 2434. 2434. 2434. 2434. 2434. 2434. 2434. 2434. 2434. 2434. 2434. 2434. 2434. 2434. 2434. 2434. 2434. 2434. 2434. 2434. 2417. 2400. 2400. 2400. 2400. 2400. 2384. 2384. 2384. 2384. 2384. 2384. 2384. 2367. 2367. 2367. 2351. 2351. 1694. 1694. 1686. 1686. 1686. 1677. 1669. 1661. 1653. 1653. 1653. 1638. 1638. 1638. 1638. 1630. 1630. 1630. 1630. 1630. 1630. 1630. 1630. 1630. 1630. 1615. 1615. 1615. 1615. 1615. 1615. 1615. 1615. 1615. 1622. 1622. 1622. 1622. 1622. 1630. 1630. 1630. 1638. 1630. 1630. 1638. 1638. 1638. 1638. 1638. 1630. 1638. 1638. 1638. 1638. 1630. 1638. 1630. 1638. 1638. 1630. 1630. 1630. 1630. 1630. 1622. 1622. 1622. 1622. 1607. 1607. 1600. 1592. 1592. 1592. 1592. 1592. 1592. 1592. 1592. 1592. 0. 0. 1458. 1458. 1711. 1711. 1711. 1719. 1711. 1728. 1728. 1719. 1719. 1702. 1677. 1677. 1686. 1711. 1702. 1711. 1702. 1694. 1711. 1615. 1622. 1615. 1607. 1607. 1607. 1592. 1607. 1600. 1592. 1592. 1592. 1600. 1592. 1592. 1592. 1585. 1571. 1549. 1542. 1536. 1529. 1529.
    0. 0. 0. 0. 0. 0. 0. 0. 2045. 2033. 2021. 2021. 2021. 2009. 2009. 2009. 2009. 2009. 2021. 2021. 2033. 2033. 2033. 2033. 2045. 2045. 2045. 2057. 2057. 2057. 2057. 2057. 2069. 2069. 2057. 2057. 2045. 2045. 2033. 2009. 2009. 2009. 2009. 2009. 2009. 2021. 2033. 2021. 2033. 2033. 2033. 2045. 2057. 2057. 2057. 2069. 2082. 2082. 2095. 2095. 2107. 2107. 2107. 2107. 2120. 2120. 2120. 2120. 2107. 2095. 2095. 2095. 2095. 2107. 2107. 2120. 2133. 2133. 2244. 2244. 2244. 2259. 2259. 2244. 2259. 2259. 2259. 2259. 2259. 2259. 2259. 2259. 2274. 2274. 2274. 2274. 2289. 2289. 2289. 2304. 2289. 0. 0. 0. 0. 0. 0. 0. 0. 0. 2351. 2351. 0. 0. 0. 0. 0. 0. 1329. 1324. 1324. 1319. 1319. 1319. 1319. 1314. 1304. 1299. 1294. 1294. 1289. 1289. 1284. 1280. 1275. 1275. 1270. 1270. 1265. 1261. 1256. 1256. 1256. 1256. 1252. 1252. 1252. 1252. 1247. 1238. 1234. 1234. 1234. 1229. 1229. 1229. 1229. 1229. 1225. 1221. 1225. 1225. 1225. 1221. 1221. 1221. 1221. 1216. 1216. 1216. 1208. 1208. 1208. 1204. 1204. 1208. 1204. 1204. 1204. 1208. 1204. 1204. 1204. 1204. 1204. 1200. 1200. 1200. 1195. 1195. 1195. 1195. 1195. 1195. 1195. 1191. 1191. 1191. 1191. 1191. 1191. 1191. 1191. 1191. 1191. 1191. 1191. 1191. 1191. 1191. 1191. 1191. 1191. 1191. 1191. 1187. 1187. 1187. 1187. 1187. 1187. 1187. 1183. 1183. 1183. 1183. 1187. 1183. 1183. 1183. 1183. 1183. 1183. 1183. 1179. 1179. 1183. 1183. 1183. 1183. 1187. 1183. 1187. 1187. 1187. 1183. 1187. 1187. 1187. 1187. 1183. 1187. 1187. 1191. 1191. 1191. 1191. 1191. 1195. 1191. 1191. 1191. 1191. 1191. 1191. 1191. 1195. 1195. 1195. 1195. 1195. 1195. 1200. 1200. 1195. 1195. 1191. 1195. 1200. 1200. 1200. 1200. 1204. 1204. 1208. 1208. 1208. 1208. 1208. 1212. 1212. 1216. 1216. 1216. 1216. 1221. 1221. 1221. 1225. 1221. 1221. 1221. 1225. 1225. 1225. 1225. 1229. 1229. 1238. 1238. 1238. 1238. 1243. 1243. 1243. 1247. 1247. 1252. 1252. 1247. 1252. 1252. 1252. 1252. 1256. 1256. 1256. 1256. 1261. 1265. 1270. 1275. 1275. 1275. 1275. 1280. 1280. 1284. 1289. 1294. 1299. 1304. 1309. 1309. 1309. 1314. 1314. 1319. 1324. 1329. 1334. 1334. 1339. 1344. 1350. 1350. 1355. 0. 0. 0. 0. 0. 0. 0. 0. 0. 0. 0. 0. 0. 0. 0. 0. 0. 0. 0. 0. 0. 2619. 2639. 2639. 2680. 2680. 2659. 2659. 2659. 2659. 2659. 2659. 2680. 2659. 2680. 2659. 2639. 2639. 2639. 2639. 2619. 2619. 2619. 2639. 2639. 2639. 2619. 2619. 2619. 2619. 2599. 2599. 2599. 2599. 2580. 2580. 2580. 2580. 2580. 2580. 2580. 2580. 2580. 2580. 2580. 2580. 2580. 2580. 2580. 2580. 2580. 2560. 2560. 2560. 2542. 2542. 2542. 2542. 2542. 2542. 2542. 2523. 2523. 2523. 2523. 2523. 2523. 2523. 2523. 2523. 2523. 2523. 2523. 2523. 2505. 2505. 2505. 2505. 2487. 2487. 2487. 2487. 2487. 2487. 2487. 2487. 2469. 2469. 2451. 2451. 2451. 2451. 2434. 2434. 2434. 2434. 2434. 2434. 2434. 2434. 2434. 2434. 2434. 2434. 2434. 2434. 2434. 2434. 2434. 2434. 2434. 2434. 2434. 2434. 2434. 2434. 2434. 2434. 2400. 2400. 2400. 2400. 2400. 2400. 2384. 2384. 2384. 2384. 2384. 2384. 2384. 2367. 2367. 2367. 2351. 2351. 2351. 1694. 1694. 1694. 1694. 1686. 1677. 1661. 1661. 1653. 1653. 1638. 1645. 1645. 1638. 1638. 1638. 1638. 1630. 1630. 1630. 1630. 1630. 1630. 1630. 1615. 1615. 1615. 1615. 1615. 1615. 1615. 1615. 1615. 1622. 1622. 1622. 1622. 1630. 1630. 1630. 1638. 1638. 1630. 1630. 1638. 1638. 1645. 1645. 1638. 1638. 1638. 1645. 1638. 1645. 1638. 1638. 1638. 1638. 1645. 1638. 1638. 1638. 1638. 1630. 1630. 1622. 1622. 1622. 1607. 1607. 1592. 1592. 1592. 1592. 1592. 1600. 1600. 1592. 1600. 1600. 1600. 0. 1452. 1452. 1458. 1458. 1711. 1719. 1711. 1711. 1719. 1694. 1702. 1702. 1686. 1677. 1702. 1711. 1702. 1711. 1711. 1702. 1711. 1622. 1622. 1615. 1607. 1607. 1607. 1600. 1607. 1600. 1592. 1592. 1600. 1600. 1592. 1592. 1592. 1578. 1563. 1549. 1536. 1536. 1529. 1529.
    0. 0. 0. 0. 0. 0. 0. 0. 2045. 2033. 2021. 2021. 2021. 2009. 2009. 2009. 2009. 2009. 2021. 2021. 2033. 2033. 2021. 2033. 2033. 2045. 2045. 2057. 2057. 2057. 2057. 2069. 2069. 2069. 2057. 2057. 2045. 2033. 2021. 2009. 2009. 2009. 2009. 2009. 2009. 2009. 2009. 2021. 2021. 2033. 2033. 2045. 2057. 2069. 2069. 2082. 2095. 2095. 2095. 2095. 2107. 2095. 2107. 2095. 2107. 2120. 2107. 2107. 2107. 2095. 2095. 2107. 2095. 2107. 2107. 2133. 2120. 2120. 2147. 2244. 2244. 2259. 2259. 2259. 2259. 2259. 2259. 2259. 2259. 2259. 2259. 2259. 2274. 2274. 2274. 2274. 2289. 2289. 2304. 2304. 0. 0. 0. 0. 0. 0. 0. 0. 0. 0. 0. 0. 0. 0. 0. 0. 0. 1329. 1329. 1319. 1319. 1314. 1314. 1314. 1309. 1309. 1299. 1299. 1289. 1289. 1284. 1280. 1280. 1275. 1270. 1270. 1265. 1261. 1261. 1256. 1252. 1252. 1256. 1256. 1252. 1252. 1247. 1247. 1247. 1243. 1238. 1234. 1234. 1234. 1229. 1229. 1229. 1225. 1221. 1221. 1221. 1221. 1221. 1221. 1216. 1216. 1216. 1216. 1216. 1212. 1208. 1208. 1208. 1204. 1204. 1204. 1204. 1204. 1204. 1204. 1204. 1200. 1200. 1200. 1200. 1200. 1200. 1200. 1195. 1195. 1195. 1195. 1195. 1195. 1191. 1187. 1187. 1187. 1187. 1187. 1187. 1183. 1187. 1187. 1187. 1187. 1187. 1191. 1187. 1187. 1183. 1187. 1187. 1187. 1187. 1183. 1187. 1187. 1187. 1183. 1183. 1183. 1183. 1183. 1183. 1183. 1183. 1179. 1179. 1183. 1183. 1183. 1179. 1179. 1179. 1179. 1179. 1179. 1179. 1179. 1183. 1183. 1187. 1183. 1183. 1183. 1187. 1183. 1187. 1183. 1183. 1183. 1187. 1187. 1187. 1187. 1187. 1191. 1191. 1187. 1187. 1187. 1187. 1191. 1191. 1191. 1191. 1195. 1195. 1195. 1195. 1195. 1195. 1195. 1195. 1195. 1191. 1191. 1195. 1200. 1200. 1200. 1204. 1204. 1204. 1204. 1208. 1208. 1208. 1212. 1212. 1212. 1212. 1212. 1216. 1216. 1216. 1221. 1221. 1221. 1221. 1221. 1225. 1221. 1225. 1225. 1225. 1225. 1225. 1225. 1225. 1229. 1238. 1243. 1243. 1243. 1247. 1247. 1247. 1247. 1247. 1247. 1252. 1252. 1252. 1256. 1252. 1256. 1256. 1265. 1265. 1270. 1270. 1270. 1275. 1275. 1280. 1280. 1284. 1289. 1294. 1299. 1304. 1304. 1309. 1309. 1314. 1319. 1319. 1329. 1329. 1334. 1339. 1339. 1344. 1344. 1350. 1355. 1355. 1371. 1376. 0. 0. 0. 0. 0. 0. 0. 0. 0. 0. 0. 0. 0. 0. 0. 0. 0. 0. 2619. 2619. 2619. 2659. 2659. 2659. 2659. 2659. 2659. 2659. 2659. 2659. 2659. 2659. 2639. 2659. 2639. 2639. 2619. 2619. 2619. 2639. 2639. 2619. 2639. 2619. 2639. 2619. 2599. 2599. 2599. 2599. 2580. 2580. 2580. 2580. 2580. 2580. 2580. 2580. 2580. 2580. 2580. 2580. 2580. 2580. 2560. 2580. 2560. 2560. 2560. 2560. 2542. 2542. 2542. 2542. 2542. 2542. 2523. 2523. 2523. 2523. 2523. 2523. 2523. 2523. 2523. 2523. 2523. 2523. 2523. 2523. 2505. 2505. 2505. 2505. 2487. 2487. 2487. 2487. 2487. 2487. 2487. 2487. 2469. 2469. 2451. 2451. 2451. 2451. 2434. 2434. 2434. 2434. 2434. 2434. 2434. 2434. 2434. 2434. 2434. 2434. 2434. 2434. 2434. 2434. 2434. 2434. 2434. 2434. 2434. 2434. 2434. 2434. 2434. 2434. 2400. 2400. 2400. 2400. 2400. 2400. 2384. 2384. 2384. 2384. 2384. 2384. 2384. 2367. 2367. 2367. 2367. 2351. 2351. 2351. 1694. 1694. 1694. 1686. 1677. 1669. 1661. 1661. 1661. 1645. 1653. 1645. 1645. 1638. 1638. 1638. 1638. 1638. 1638. 1630. 1630. 1630. 1630. 1615. 1615. 1615. 1615. 1615. 1615. 1615. 1615. 1615. 1622. 1622. 1622. 1630. 1630. 1638. 1638. 1638. 1638. 1638. 1638. 1638. 1645. 1645. 1653. 1653. 1653. 1661. 0. 0. 0. 1638. 1645. 1645. 1645. 1645. 1645. 1645. 1638. 1645. 1638. 1645. 1630. 1622. 1622. 1615. 1615. 1600. 1600. 1600. 1600. 1600. 1600. 1600. 1600. 1600. 1600. 1600. 1615. 1615. 1434. 1434. 1434. 1686. 1711. 1702. 1719. 1719. 1719. 1719. 1702. 1677. 1677. 1686. 1711. 1694. 1702. 1711. 1702. 1711. 1622. 1622. 1615. 1607. 1607. 1607. 1607. 1607. 1607. 1600. 1600. 1600. 1600. 1592. 1585. 1585. 1571. 1556. 1549. 1542. 1536. 1536. 1536.
    0. 0. 0. 0. 0. 0. 0. 0. 2045. 2033. 2021. 2021. 2009. 1998. 2009. 2009. 2009. 2009. 2009. 2009. 2021. 2021. 2021. 2021. 2033. 2033. 2045. 2045. 2045. 2057. 2057. 2057. 2057. 2069. 2057. 2045. 2033. 2033. 2009. 2009. 2009. 2009. 2009. 2009. 2009. 2021. 2033. 2009. 2021. 2045. 2033. 2057. 2057. 2069. 2082. 2095. 2095. 2095. 2095. 2095. 2095. 2095. 2095. 2095. 2107. 2107. 2107. 2095. 2095. 2095. 2107. 2107. 2107. 2107. 2107. 2120. 2120. 2120. 2147. 2147. 2230. 2259. 2259. 2259. 2259. 2259. 2259. 2259. 2259. 2259. 2259. 2259. 2274. 2274. 2274. 2274. 2289. 2289. 2289. 2304. 0. 0. 0. 0. 0. 0. 0. 0. 0. 0. 0. 0. 0. 0. 0. 0. 0. 1334. 1334. 1324. 1319. 1314. 1314. 1309. 1294. 1294. 1294. 1294. 1284. 1284. 1280. 1275. 1275. 1270. 1265. 1261. 1261. 1256. 1256. 1252. 1252. 1252. 1247. 1247. 1243. 1243. 1243. 1238. 1238. 1234. 1234. 1229. 1229. 1225. 1225. 1225. 1225. 1221. 1216. 1216. 1216. 1216. 1216. 1216. 1216. 1212. 1212. 1212. 1212. 1212. 1208. 1208. 1208. 1204. 1204. 1204. 1204. 1200. 1200. 1200. 1200. 1195. 1195. 1200. 1200. 1200. 1200. 1200. 1195. 1195. 1195. 1195. 1195. 1195. 1187. 1183. 1183. 1183. 1183. 1183. 1183. 1183. 1183. 1183. 1183. 1187. 1183. 1187. 1183. 1183. 1183. 1183. 1183. 1183. 1183. 1183. 1183. 1183. 1183. 1183. 1183. 1183. 1183. 1183. 1179. 1183. 1183. 1183. 1179. 1179. 1179. 1183. 1179. 1179. 1175. 1175. 1179. 1179. 1179. 1179. 1179. 1179. 1179. 1179. 1179. 1183. 1183. 1183. 1183. 1183. 1183. 1183. 1183. 1187. 1183. 1183. 1183. 1187. 1187. 1183. 1187. 1187. 1187. 1187. 1191. 1191. 1191. 1191. 1191. 1191. 1191. 1195. 1195. 1195. 1195. 1195. 1191. 1195. 1195. 1195. 1200. 1200. 1200. 1204. 1204. 1204. 1204. 1204. 1204. 1208. 1208. 1212. 1212. 1212. 1212. 1216. 1216. 1216. 1221. 1221. 1221. 1221. 1221. 1221. 1221. 1225. 1225. 1225. 1225. 1225. 1225. 1229. 1238. 1238. 1238. 1243. 1243. 1243. 1247. 1247. 1247. 1247. 1252. 1252. 1252. 1252. 1252. 1252. 1256. 1261. 1261. 1265. 1270. 1270. 1270. 1275. 1275. 1280. 1280. 1284. 1289. 1294. 1299. 1304. 1304. 1309. 1309. 1314. 1319. 1324. 1324. 1329. 1334. 1334. 1339. 1344. 1350. 1355. 1355. 1360. 1371. 1376. 1376. 1376. 1388. 1388. 0. 0. 0. 0. 0. 0. 0. 0. 0. 0. 0. 0. 0. 0. 2599. 2599. 2659. 2659. 2639. 2639. 2659. 2659. 2659. 2659. 2659. 2659. 2659. 2639. 2639. 2639. 2619. 2619. 2619. 2619. 2619. 2619. 2619. 2619. 2619. 2619. 2619. 2599. 2599. 2599. 2580. 2580. 2580. 2580. 2580. 2580. 2580. 2580. 2580. 2580. 2580. 2580. 2580. 2580. 2580. 2560. 2580. 2560. 2560. 2560. 2560. 2542. 2542. 2542. 2542. 2542. 2542. 2542. 2523. 2523. 2523. 2523. 2523. 2523. 2523. 2523. 2523. 2523. 2523. 2523. 2523. 2505. 2505. 2487. 2487. 2487. 2487. 2487. 2487. 2487. 2487. 2487. 2469. 2469. 2469. 2469. 2451. 2451. 2451. 2434. 2434. 2451. 2434. 2434. 2434. 2434. 2434. 2434. 2451. 2434. 2434. 2434. 2434. 2434. 2434. 2434. 2434. 2434. 2434. 2434. 2434. 2434. 2417. 2417. 2417. 2400. 2400. 2400. 2400. 2400. 2384. 2384. 2384. 2384. 2384. 2384. 2384. 2384. 2384. 2367. 2367. 2367. 2351. 2351. 2351. 1694. 1694. 1694. 1694. 1694. 1661. 1661. 1653. 1653. 1638. 1645. 1645. 1645. 1638. 1638. 1638. 1638. 1638. 1630. 1630. 1630. 1630. 1622. 1615. 1615. 1615. 1615. 1615. 1615. 1615. 1615. 1622. 1622. 1630. 1630. 1630. 1645. 1645. 1638. 1645. 1638. 1638. 1638. 1645. 1645. 1653. 1653. 1653. 1661. 0. 0. 0. 0. 0. 0. 1645. 1653. 1653. 1645. 1653. 1645. 1645. 1645. 1645. 1630. 1630. 1630. 1615. 1615. 1600. 1600. 1607. 1600. 1600. 1607. 1607. 1607. 1607. 1607. 1607. 1615. 1615. 0. 0. 0. 1702. 1711. 1711. 1711. 1711. 1711. 1719. 1702. 1677. 1677. 1686. 1711. 1694. 1711. 1711. 1711. 1711. 1615. 1615. 1600. 1607. 1600. 1607. 1607. 1607. 1607. 1592. 1600. 1600. 1600. 1585. 1578. 1578. 1571. 1556. 1556. 1549. 1542. 1536. 1542.
    0. 0. 0. 0. 0. 0. 0. 0. 2045. 2033. 2021. 2021. 2009. 1998. 1998. 1998. 1998. 1998. 1998. 1998. 2009. 2021. 2021. 2009. 2021. 2033. 2045. 2045. 2045. 2045. 2045. 2045. 2057. 2057. 2057. 2045. 2033. 2033. 2021. 2009. 2009. 2009. 2009. 2009. 2009. 2021. 2021. 2021. 2021. 2033. 2045. 2057. 2069. 2082. 2082. 2095. 2095. 2095. 2095. 2095. 2095. 2095. 2095. 2095. 2095. 2095. 2095. 2095. 2095. 2095. 2095. 2095. 2095. 2107. 2107. 2120. 2120. 2120. 2133. 2147. 2244. 2259. 2259. 2259. 2259. 2259. 2259. 2259. 2259. 2259. 2259. 2259. 2274. 2274. 2274. 2289. 2289. 2289. 2289. 2304. 2304. 0. 0. 0. 0. 0. 0. 0. 0. 0. 0. 0. 0. 0. 0. 0. 0. 1329. 1329. 1319. 1314. 1309. 1309. 1299. 1289. 1289. 1289. 1284. 1280. 1280. 1280. 1275. 1270. 1270. 1261. 1261. 1256. 1247. 1247. 1247. 1247. 1243. 1243. 1243. 1238. 1238. 1238. 1234. 1234. 1234. 1229. 1229. 1225. 1221. 1221. 1221. 1216. 1216. 1216. 1216. 1212. 1212. 1216. 1212. 1212. 1212. 1208. 1208. 1208. 1208. 1208. 1204. 1204. 1204. 1204. 1200. 1200. 1200. 1195. 1191. 1191. 1191. 1195. 1195. 1195. 1195. 1200. 1200. 1195. 1195. 1195. 1191. 1191. 1187. 1183. 1183. 1183. 1183. 1183. 1183. 1183. 1183. 1183. 1183. 1183. 1187. 1183. 1183. 1183. 1183. 1183. 1183. 1183. 1183. 1179. 1179. 1183. 1183. 1183. 1183. 1183. 1183. 1183. 1179. 1179. 1179. 1179. 1179. 1179. 1179. 1179. 1179. 1175. 1175. 1175. 1175. 1179. 1179. 1179. 1179. 1179. 1179. 1179. 1179. 1179. 1179. 1179. 1179. 1179. 1179. 1179. 1183. 1183. 1183. 1179. 1179. 1179. 1183. 1183. 1183. 1183. 1187. 1187. 1187. 1187. 1187. 1187. 1191. 1191. 1191. 1191. 1195. 1195. 1195. 1195. 1195. 1191. 1191. 1195. 1195. 1195. 1200. 1200. 1200. 1200. 1200. 1200. 1204. 1204. 1204. 1204. 1208. 1208. 1208. 1208. 1212. 1212. 1216. 1216. 1216. 1221. 1221. 1221. 1221. 1221. 1225. 1225. 1225. 1229. 1225. 1229. 1225. 1234. 1234. 1238. 1238. 1238. 1243. 1243. 1243. 1243. 1247. 1247. 1247. 1252. 1252. 1252. 1252. 1252. 1256. 1256. 1261. 1261. 1265. 1270. 1270. 1270. 1275. 1275. 1280. 1284. 1289. 1294. 1299. 1299. 1304. 1309. 1309. 1314. 1319. 1319. 1324. 1329. 1329. 1334. 1339. 1344. 1350. 1355. 1355. 1360. 1371. 1371. 1371. 1382. 0. 0. 0. 0. 0. 0. 0. 0. 0. 0. 0. 0. 0. 0. 0. 0. 2599. 2659. 2639. 2639. 2639. 2659. 2659. 2659. 2659. 2659. 2659. 2659. 2639. 2639. 2639. 2619. 2619. 2619. 2619. 2619. 2639. 2619. 2639. 2619. 2639. 2619. 2599. 2599. 2599. 2580. 2580. 2580. 2580. 2580. 2580. 2580. 2580. 2580. 2580. 2580. 2580. 2580. 2580. 2580. 2560. 2580. 2560. 2560. 2542. 2542. 2542. 2542. 2542. 2542. 2542. 2523. 2523. 2523. 2523. 2523. 2523. 2523. 2523. 2523. 2523. 2523. 2523. 2523. 2523. 2523. 2505. 2505. 2487. 2487. 2487. 2487. 2487. 2487. 2487. 2487. 2487. 2469. 2469. 2469. 2469. 2451. 2451. 2451. 2434. 2434. 2434. 2434. 2434. 2434. 2434. 2434. 2434. 2451. 2451. 2434. 2434. 2434. 2434. 2434. 2434. 2434. 2434. 2434. 2434. 2434. 2434. 2434. 2417. 2417. 2400. 2400. 2400. 2400. 2400. 2384. 2384. 2384. 2384. 2384. 2384. 2384. 2384. 2384. 2367. 2351. 2351. 2351. 2351. 2335. 1694. 1694. 1694. 1694. 0. 0. 0. 1645. 1645. 1638. 1645. 1645. 1645. 1638. 1638. 1638. 1638. 1638. 1630. 1630. 1630. 1630. 1622. 1615. 1615. 1615. 1615. 1615. 1622. 1622. 1622. 1622. 1630. 1630. 1638. 1638. 1645. 1653. 1645. 0. 1645. 1645. 1638. 1645. 1645. 1653. 1653. 1661. 1661. 0. 0. 0. 0. 0. 0. 0. 0. 1653. 1653. 1653. 1653. 1653. 1661. 1653. 1638. 1645. 0. 0. 0. 0. 0. 0. 0. 0. 1607. 1607. 1607. 1607. 1607. 1607. 1615. 1615. 1615. 0. 0. 0. 0. 1702. 1711. 1711. 1711. 1719. 1702. 0. 1677. 1686. 1694. 1694. 1702. 1711. 1711. 1719. 1600. 1600. 1600. 1600. 1600. 1600. 1600. 1600. 1607. 1592. 1600. 1600. 1600. 1585. 1578. 1578. 1563. 1556. 1549. 1542. 1542. 1536. 1542.
    0. 0. 0. 0. 0. 0. 0. 0. 2033. 2021. 2009. 2009. 2009. 1986. 1998. 1998. 1998. 1986. 1986. 1998. 1998. 2009. 2009. 2009. 2009. 2009. 2033. 2045. 2045. 2045. 2045. 2045. 2045. 2057. 2045. 2033. 2021. 2021. 2021. 2009. 2009. 2009. 2009. 2009. 2021. 2021. 2033. 2045. 2045. 2045. 2045. 2057. 2057. 2069. 2069. 2082. 2082. 2082. 2082. 2082. 2082. 2082. 2082. 2082. 2082. 2082. 2082. 2082. 2082. 2095. 2095. 2095. 2095. 2107. 2107. 2107. 2107. 2107. 2120. 2244. 2244. 2259. 2274. 2259. 2259. 2259. 2259. 2259. 2259. 2259. 2259. 2259. 2259. 2259. 2259. 2274. 2274. 2289. 2289. 2304. 2289. 2289. 0. 0. 0. 0. 0. 0. 0. 0. 0. 0. 0. 0. 0. 0. 0. 1319. 1319. 1314. 1304. 1299. 1299. 1284. 1284. 1284. 1284. 1280. 1280. 1275. 1275. 1270. 1265. 1261. 1261. 1256. 1247. 1247. 1243. 1243. 1243. 1243. 1243. 1238. 1234. 1234. 1234. 1229. 1225. 1229. 1229. 1225. 1221. 1221. 1221. 1216. 1216. 1216. 1216. 1212. 1212. 1212. 1212. 1212. 1212. 1208. 1204. 1204. 1208. 1204. 1204. 1204. 1204. 1204. 1204. 1204. 1200. 1200. 1195. 1191. 1191. 1191. 1191. 1191. 1195. 1195. 1195. 1200. 1191. 1191. 1191. 1187. 1183. 1183. 1179. 1179. 1179. 1179. 1179. 1179. 1183. 1183. 1183. 1183. 1183. 1183. 1183. 1183. 1183. 1179. 1179. 1179. 1179. 1179. 1179. 1179. 1179. 1179. 1179. 1179. 1179. 1179. 1179. 1179. 1179. 1179. 1179. 1179. 1175. 1175. 1179. 1179. 1175. 1175. 1175. 1175. 1175. 1175. 1175. 1175. 1175. 1175. 1175. 1175. 1175. 1179. 1179. 1179. 1175. 1175. 1179. 1179. 1179. 1179. 1179. 1179. 1179. 1183. 1183. 1179. 1179. 1183. 1183. 1183. 1187. 1187. 1187. 1191. 1191. 1187. 1187. 1191. 1191. 1191. 1191. 1191. 1187. 1191. 1191. 1191. 1195. 1195. 1195. 1200. 1200. 1200. 1200. 1200. 1200. 1200. 1200. 1204. 1204. 1204. 1208. 1208. 1208. 1212. 1212. 1216. 1216. 1216. 1221. 1221. 1221. 1221. 1225. 1225. 1225. 1225. 1225. 1225. 1225. 1225. 1229. 1234. 1238. 1243. 1238. 1243. 1238. 1243. 1238. 1247. 1243. 1247. 1247. 1247. 1252. 1252. 1256. 1256. 1261. 1261. 1265. 1265. 1270. 1270. 1275. 1280. 1280. 1289. 1289. 1294. 1294. 1299. 1299. 1304. 1309. 1314. 1319. 1324. 1329. 1329. 1334. 1334. 1339. 1344. 1350. 1355. 1360. 1366. 1371. 1371. 1382. 1382. 0. 0. 0. 0. 0. 0. 0. 0. 0. 0. 0. 0. 0. 0. 0. 2619. 2639. 2639. 2659. 2659. 2659. 2659. 2659. 2659. 2659. 2680. 2659. 2639. 2639. 2639. 2619. 2619. 2619. 2619. 2619. 2619. 2619. 2619. 2619. 2619. 2619. 2599. 2599. 2599. 2599. 2599. 2599. 2580. 2580. 2599. 2580. 2580. 2580. 2580. 2580. 2580. 2580. 2580. 2560. 2560. 2580. 2560. 2560. 2560. 2542. 2542. 2542. 2542. 2542. 2542. 2542. 2523. 2523. 2523. 2523. 2523. 2523. 2523. 2523. 2523. 2523. 2523. 2523. 2523. 2523. 2505. 2505. 2487. 2487. 2487. 2487. 2487. 2487. 2487. 2487. 2487. 2469. 2469. 2469. 2469. 2451. 2451. 2451. 2434. 2434. 2451. 2434. 2434. 2434. 2434. 2434. 2434. 2451. 2434. 2434. 2434. 2434. 2434. 2434. 2434. 2434. 2417. 2434. 2434. 2434. 2434. 2434. 2417. 2417. 2400. 2400. 2400. 2400. 2400. 2384. 2384. 2384. 2384. 2384. 2384. 2384. 2384. 2384. 2367. 2351. 2351. 2351. 2335. 2335. 2320. 2320. 2289. 2289. 0. 0. 0. 0. 1653. 1638. 1645. 1653. 1645. 1645. 1638. 1638. 1630. 1638. 1630. 1630. 1622. 1622. 1622. 1607. 1615. 1607. 1607. 1615. 1622. 1622. 1622. 1630. 0. 1630. 1638. 1645. 1653. 1661. 1653. 0. 0. 0. 0. 1645. 0. 0. 1661. 1661. 1661. 0. 0. 0. 0. 0. 0. 0. 0. 0. 0. 1661. 1661. 1661. 1669. 1669. 1661. 1661. 0. 0. 0. 0. 0. 0. 0. 0. 1607. 1607. 1607. 1615. 1607. 1615. 1615. 1615. 1615. 0. 0. 0. 0. 0. 0. 0. 0. 0. 0. 0. 1677. 1686. 1694. 1686. 1694. 1702. 1711. 1711. 1600. 1600. 1600. 1600. 1592. 1592. 1600. 0. 0. 0. 0. 0. 0. 0. 1578. 0. 1556. 1549. 1549. 1542. 1542. 1542. 1549.
    0. 0. 0. 0. 0. 0. 0. 0. 2021. 2021. 2009. 2009. 1998. 1975. 1986. 1975. 1975. 1975. 1975. 1975. 1986. 1998. 2009. 1998. 2009. 1998. 2009. 2009. 2009. 2009. 2009. 2021. 2033. 2033. 2033. 2033. 2021. 2021. 2021. 2009. 2009. 2009. 2009. 2009. 2021. 2033. 2033. 2045. 2045. 2045. 2045. 2057. 2057. 2057. 2069. 2069. 2069. 2069. 2082. 2082. 2082. 2069. 2082. 2069. 2069. 2069. 2069. 2069. 2082. 2082. 2082. 2095. 2095. 2107. 2107. 2107. 2120. 2107. 2120. 2147. 2230. 2259. 2259. 2259. 2259. 2259. 2259. 2259. 2259. 2259. 2259. 2259. 2259. 2274. 2259. 2274. 2274. 2289. 2289. 2289. 2289. 2289. 2304. 2304. 0. 0. 0. 0. 0. 0. 0. 0. 0. 0. 0. 0. 0. 1314. 1314. 1309. 1284. 1294. 1284. 1280. 1280. 1280. 1280. 1275. 1275. 1270. 1265. 1261. 1261. 1256. 1256. 1252. 1247. 1243. 1243. 1238. 1238. 1238. 1238. 1234. 1229. 1229. 1229. 1225. 1225. 1221. 1221. 1221. 1216. 1216. 1216. 1216. 1212. 1212. 1212. 1212. 1208. 1208. 1208. 1208. 1208. 1208. 1204. 1204. 1204. 1204. 1204. 1204. 1204. 1204. 1200. 1204. 1200. 1195. 1191. 1187. 1187. 1187. 1187. 1191. 1191. 1191. 1191. 1191. 1187. 1187. 1187. 1187. 1183. 1183. 1179. 1179. 1179. 1179. 1179. 1179. 1179. 1179. 1179. 1179. 1179. 1179. 1179. 1179. 1179. 1179. 1179. 1179. 1179. 1175. 1175. 1175. 1175. 1175. 1175. 1179. 1179. 1179. 1179. 1179. 1175. 1175. 1175. 1175. 1175. 1175. 1175. 1179. 1171. 1171. 1175. 1171. 1175. 1175. 1175. 1175. 1175. 1175. 1175. 1175. 1175. 1175. 1175. 1175. 1175. 1175. 1175. 1179. 1179. 1179. 1179. 1179. 1179. 1179. 1179. 1179. 1179. 1179. 1179. 1183. 1183. 1183. 1183. 1187. 1187. 1187. 1191. 1191. 1191. 1191. 1191. 1191. 1187. 1191. 1191. 1191. 1191. 1195. 1195. 1195. 1195. 1195. 1195. 1195. 1195. 1195. 1200. 1200. 1204. 1204. 1204. 1208. 1208. 1208. 1208. 1212. 1216. 1216. 1221. 1221. 1221. 1221. 1225. 1225. 1225. 1225. 1225. 1225. 1225. 1225. 1225. 1229. 1234. 1238. 1243. 1238. 1238. 1238. 1243. 1243. 1243. 1247. 1247. 1247. 1252. 1252. 1256. 1256. 1261. 1261. 1261. 1265. 1270. 1270. 1275. 1275. 1280. 1284. 1284. 1289. 1294. 1294. 1294. 1299. 1304. 1309. 1314. 1319. 1324. 1329. 1334. 1334. 1339. 1344. 1350. 1355. 1355. 1360. 1366. 1371. 1382. 1382. 0. 0. 0. 0. 0. 0. 0. 0. 0. 0. 0. 0. 0. 0. 0. 0. 2639. 2639. 2659. 2659. 2659. 2659. 2659. 2659. 2659. 2659. 2659. 2639. 2639. 2639. 2619. 2619. 2619. 2619. 2619. 2619. 2619. 2619. 2619. 2619. 2619. 2599. 2599. 2599. 2599. 2599. 2599. 2599. 2580. 2599. 2580. 2580. 2580. 2580. 2580. 2580. 2580. 2580. 2580. 2580. 2580. 2560. 2560. 2542. 2542. 2542. 2542. 2542. 2542. 2542. 2523. 2523. 2523. 2523. 2523. 2523. 2523. 2523. 2523. 2523. 2523. 2523. 2523. 2523. 2523. 2505. 2505. 2487. 2487. 2487. 2487. 2487. 2487. 2487. 2487. 2487. 2469. 2469. 2469. 2469. 2451. 2451. 2451. 2451. 2434. 2451. 2434. 2434. 2434. 2434. 2434. 2434. 2434. 2434. 2434. 2434. 2434. 2434. 2434. 2434. 2417. 2417. 2417. 2417. 2434. 2417. 2417. 2417. 2417. 2400. 2400. 2400. 2400. 2400. 2384. 2384. 2384. 2384. 2367. 2367. 2384. 2384. 2384. 2367. 2351. 2351. 2351. 2351. 2335. 2289. 2289. 2289. 2289. 0. 0. 0. 0. 0. 1638. 1645. 1653. 1653. 1653. 1653. 1638. 1638. 1638. 1630. 1622. 1622. 1622. 1607. 1607. 1615. 1607. 0. 0. 0. 0. 0. 0. 0. 0. 0. 0. 0. 0. 0. 0. 0. 0. 0. 0. 0. 0. 0. 1661. 0. 0. 0. 0. 0. 0. 0. 0. 0. 0. 0. 0. 1661. 0. 1677. 1677. 1669. 0. 0. 0. 0. 0. 0. 0. 0. 0. 0. 0. 1607. 1607. 1607. 1607. 1607. 0. 0. 0. 0. 0. 0. 0. 0. 0. 0. 0. 0. 0. 0. 1686. 1694. 1694. 1702. 1711. 1719. 1719. 1600. 1600. 1600. 1600. 1592. 1592. 1592. 1592. 0. 0. 0. 0. 0. 0. 0. 0. 1549. 1549. 1549. 1542. 1542. 1542. 1549.</data></original_depth>
</opencv_storage>
